x,y,z,f,scl1
0.39673766,0.35994127,-0.072629474,0.0,0.0
-0.40704587,-0.18158387,0.10192444,0.0,0.0
-0.5775452,-0.10294495,0.12163804,0.0,0.0
-0.36702964,0.1493352,0.01689456,0.0,0.0
-0.3611032,-0.04944944,0.02253484,0.0,0.0
-0.95910126,0.04172899,-0.122039855,0.0,0.0
-0.5908627,-0.13634413,0.15524393,0.0,0.0
-0.42517358,-0.15525,0.17171109,0.0,0.0
0.35058266,0.10705785,-0.10514148,0.0,0.0
-0.68263966,0.021148665,-0.0660136,0.0,0.0
1.0254679,-0.07769478,-0.012786004,0.0,0.0
0.6198305,-0.17985754,0.08319373,0.0,0.0
-0.24618423,-0.20809288,-0.020095007,0.0,0.0
-0.23761767,-0.11929876,0.20280269,0.0,0.0
-0.29859614,0.016594699,-0.15306777,0.0,0.0
0.47247735,-0.10162824,-0.10856053,0.0,0.0
-0.5599107,-0.04956138,-0.15005764,0.0,0.0
-0.05326453,-0.20076533,0.16976358,0.0,0.0
-0.73033696,-0.12574166,-0.0867899,0.0,0.0
-0.4785716,0.04167,-0.09138464,0.0,0.0
-0.174191,-0.0996392,0.039476275,0.0,0.0
-0.038454738,0.08346901,-0.0314094,0.0,0.0
0.0024270832,-0.06139053,0.11318008,0.0,0.0
0.10319074,-0.22059156,0.19472834,0.0,0.0
-0.10999875,-0.14037816,-0.11113704,0.0,0.0
-0.3403509,-0.07649252,-0.0025346181,0.0,0.0
-0.11302433,-0.056936085,-0.03634422,0.0,0.0
0.0784484,-0.17520209,0.18638188,0.0,0.0
-0.5169249,0.08719635,-0.12859128,0.0,0.0
-0.47246394,0.17312464,-0.102454774,0.0,0.0
-0.20961058,-0.008745285,-0.13274314,0.0,0.0
0.010807617,-0.03246506,-0.13433133,0.0,0.0
-0.5843082,0.11181925,-0.070452385,0.0,0.0
-0.5694697,0.16558921,0.026985398,0.0,0.0
0.42518792,-0.02397827,-0.04562468,0.0,0.0
-0.12079864,-0.030995948,-0.008464199,0.0,0.0
-0.32059118,0.003188917,-0.107057184,0.0,0.0
-0.55040646,0.26905918,-0.12147313,0.0,0.0
-0.23877649,0.07351597,-0.08653329,0.0,0.0
0.11618844,-0.1108384,-0.038306963,0.0,0.0
-0.27521804,0.07657867,0.09205246,0.0,0.0
0.8072608,-0.103655525,-0.06610612,0.0,0.0
0.08900721,-0.2168497,0.020448294,0.0,0.0
-0.1929506,0.058222026,-0.13137864,0.0,0.0
-0.60112774,-0.020151474,-0.08688706,0.0,0.0
-0.7772016,0.029950881,-0.065547094,0.0,0.0
-0.34308168,0.05252783,-0.15664937,0.0,0.0
-0.24114908,0.32890397,-0.11910742,0.0,0.0
0.66284204,-0.06576033,0.09602231,0.0,0.0
0.3405301,-0.08571108,0.051670965,0.0,0.0
-0.13160986,0.18434201,-0.081451386,0.0,0.0
0.7313663,0.033772543,-0.025375914,0.0,0.0
0.24893007,-0.19793949,0.31820533,0.0,0.0
-0.009871289,-0.054301143,-0.16738108,0.0,0.0
0.4142677,-0.038117748,-0.05702779,0.0,0.0
0.56006294,-0.15582895,0.14295213,0.0,0.0
0.5394261,0.0710479,-0.1403899,0.0,0.0
-0.56136936,-0.04943164,-0.007599291,0.0,0.0
-0.46979377,0.15195,-0.11488398,0.0,0.0
0.5784491,-0.06622292,0.042815868,0.0,0.0
0.20706427,-0.12907915,0.11770414,0.0,0.0
-0.06823258,-0.09553227,0.046060104,0.0,0.0
-0.2991556,-0.089257546,0.027517462,0.0,0.0
-0.4443052,0.017026775,-0.0018681973,0.0,0.0
-0.054932207,0.2524839,-0.007727979,0.0,0.0
0.020208437,-0.068748206,-0.19561495,0.0,0.0
-0.38142928,-0.17150745,0.18340328,0.0,0.0
0.56371915,0.07003654,-0.117949516,0.0,0.0
-0.24970411,-0.14192204,0.10926749,0.0,0.0
0.6494159,-0.16151348,0.04659091,0.0,0.0
0.038113628,-0.051233374,0.09769513,0.0,0.0
0.68450266,-0.0708959,-0.084375486,0.0,0.0
-0.2993349,-0.0058537223,0.13577153,0.0,0.0
0.04759849,0.29840115,0.008279275,0.0,0.0
0.12235007,0.2957222,-0.1226945,0.0,0.0
-0.6466591,0.24745974,-0.059924323,0.0,0.0
0.77436244,-0.003316749,-0.09607647,0.0,0.0
-0.73903906,-0.30888978,0.20913368,0.0,0.0
-0.89781195,0.15975563,0.21261767,0.0,0.0
-0.06426384,-0.16593765,0.13687986,0.0,0.0
0.43905595,-0.057381947,-0.0951847,0.0,0.0
0.50843644,-0.18812749,0.25624442,0.0,0.0
0.2721924,-0.11369533,-0.10086324,0.0,0.0
0.8431513,-0.009237847,-0.13183236,0.0,0.0
-0.4747275,0.3381473,-0.14572103,0.0,0.0
-0.1920295,-0.08182562,0.15488175,0.0,0.0
0.11405117,0.14146328,-0.15514621,0.0,0.0
0.30156505,0.03500228,0.045406137,0.0,0.0
0.34833205,0.06958806,-0.0025408783,0.0,0.0
-0.15250245,-0.20540966,0.03420908,0.0,0.0
-0.29113564,0.08490547,-0.06784821,0.0,0.0
-0.3591643,0.120231286,0.094732285,0.0,0.0
-0.07231486,-0.21786685,0.23088104,0.0,0.0
-0.0287762,-0.034571487,-0.040272173,0.0,0.0
0.29736462,-0.25708485,-0.059577044,0.0,0.0
-0.5430963,-0.15664463,0.06922582,0.0,0.0
0.14026818,0.06398442,0.0026945993,0.0,0.0
0.27281713,-0.21098174,0.24191177,0.0,0.0
0.9303616,0.033963144,-0.0976879,0.0,0.0
0.09838591,0.047391612,-0.12489742,0.0,0.0
0.6495647,0.2047541,-0.11827631,0.0,0.0
-0.22220719,-0.15365773,0.06907659,0.0,0.0
0.375223,0.22537293,-0.025979614,0.0,0.0
-0.3944252,0.104939505,-0.08185202,0.0,0.0
0.6520092,-0.09104833,-0.11886475,0.0,0.0
-0.70182365,-0.025933942,-0.10818821,0.0,0.0
-0.2921258,0.13412909,-0.11417096,0.0,0.0
-0.42253795,0.118915066,-0.063280605,0.0,0.0
0.6214843,-0.10918477,-0.17944907,0.0,0.0
0.31868508,-0.28242463,-0.08944399,0.0,0.0
0.5833079,-0.19819403,0.14042315,0.0,0.0
-0.6559729,0.033331245,-0.08097767,0.0,0.0
0.11940663,-0.16310881,0.22879426,0.0,0.0
0.41709572,-0.0064042844,-0.024337461,0.0,0.0
0.13006772,-0.0066120503,-0.08916612,0.0,0.0
0.7066038,-0.20523205,0.17206734,0.0,0.0
1.2598717,-0.17985338,-0.23570299,0.0,0.0
0.19988734,-0.027952513,-0.1607901,0.0,0.0
-0.47074538,-0.053799793,0.10694638,0.0,0.0
-0.6231728,0.12095759,-0.11230485,0.0,0.0
0.28134808,-0.010233818,-0.16838998,0.0,0.0
0.25297415,-0.11344457,0.09489131,0.0,0.0
0.33588493,0.00089455466,-0.026948374,0.0,0.0
0.15721422,-0.0075773983,0.00057280844,0.0,0.0
0.21869761,0.13076645,-0.050298568,0.0,0.0
0.7146036,-0.1749812,0.043056738,0.0,0.0
-0.30697578,-0.09582152,-0.05760924,0.0,0.0
0.06742871,-0.083776794,0.11498195,0.0,0.0
-0.83878016,-0.07130979,-0.099944055,0.0,0.0
0.24796817,-0.010258682,0.13603976,0.0,0.0
-0.37971494,0.25105786,-0.069773756,0.0,0.0
0.1706633,-0.05917796,0.02058071,0.0,0.0
-0.06011224,4.6600035e-05,-0.038292736,0.0,0.0
-0.32296318,0.0045132013,-0.13291676,0.0,0.0
0.19103873,-0.04293937,0.28204274,0.0,0.0
0.06726226,0.30731878,-0.10428116,0.0,0.0
0.39323628,0.021129651,-0.15280098,0.0,0.0
-0.46020535,0.06543045,-0.08193561,0.0,0.0
-0.8725664,0.13309821,-0.13320807,0.0,0.0
-0.56564236,-0.14695214,0.08902185,0.0,0.0
-0.21012719,0.1785051,-0.08327069,0.0,0.0
0.4810167,0.04306074,-0.15414356,0.0,0.0
0.59151965,-0.16126497,0.040626477,0.0,0.0
0.66899914,-0.09922467,-0.12621439,0.0,0.0
-0.3636195,0.061557204,-0.021172876,0.0,0.0
0.23085701,0.030318614,-0.025916357,0.0,0.0
0.46784288,0.009017935,-0.082145855,0.0,0.0
0.37622184,-0.20110929,-0.010772629,0.0,0.0
0.78204757,0.08330577,-0.08633253,0.0,0.0
-0.04381216,0.0060178763,-0.14380944,0.0,0.0
0.469302,-0.19157387,0.13640834,0.0,0.0
0.2004178,-0.16665377,-0.115109034,0.0,0.0
0.56875,0.017675882,-0.061014116,0.0,0.0
0.5673773,0.12637745,-0.06421531,0.0,0.0
-0.797531,0.09894754,-0.084638946,0.0,0.0
0.42225248,-0.028149365,0.00808062,0.0,0.0
-0.5945322,-0.16120724,0.045459453,0.0,0.0
-0.11587164,-0.2118378,-0.0292965,0.0,0.0
0.6494299,-0.06811512,-0.042271066,0.0,0.0
-0.30072588,0.02118316,-0.13956198,0.0,0.0
0.22963372,0.282415,-0.12712416,0.0,0.0
-0.07615338,0.1844406,-0.08459786,0.0,0.0
0.8017669,0.05992873,-0.0378959,0.0,0.0
-0.6766801,0.5718608,-0.108227484,0.0,0.0
-0.07297594,0.22724895,-0.10469057,0.0,0.0
0.68706346,0.17508575,-0.053939007,0.0,0.0
0.25811645,-0.125004,0.05602228,0.0,0.0
0.13953984,0.02130111,-0.06502351,0.0,0.0
-0.7486087,-0.14191523,0.07344187,0.0,0.0
-1.0683573,-0.044013992,-0.017258849,0.0,0.0
0.7059814,-0.14687337,0.1338176,0.0,0.0
0.09649916,-0.11415887,-0.16514602,0.0,0.0
-0.17298196,0.119435124,-0.08597156,0.0,0.0
-0.677863,-0.20622788,0.08351797,0.0,0.0
0.64070493,-0.03654302,0.06645817,0.0,0.0
-0.04123914,-0.014992621,-0.08940531,0.0,0.0
-0.12050325,0.03912766,-0.07678865,0.0,0.0
-0.48319295,-0.1058533,0.20323053,0.0,0.0
0.3102589,-0.03701261,-0.13281117,0.0,0.0
-0.015327666,-0.025510501,0.13213922,0.0,0.0
-0.47569895,0.0077322247,-0.12455732,0.0,0.0
0.22679548,0.18262298,-0.10502683,0.0,0.0
-0.09771256,0.090983324,-0.08932954,0.0,0.0
-0.9471402,0.02153289,-0.083923556,0.0,0.0
-0.13137758,0.04116334,-0.048084762,0.0,0.0
-0.16064233,-0.17787017,0.17572373,0.0,0.0
0.3452791,0.047503337,0.039443355,0.0,0.0
0.08327511,0.058869466,0.009268925,0.0,0.0
0.36065975,0.024564773,0.022818303,0.0,0.0
0.48442453,-0.0023150267,0.033250008,0.0,0.0
0.5532412,0.006255301,0.05585393,0.0,0.0
-0.06073961,0.14337248,-0.08520027,0.0,0.0
-0.05803391,-0.2797721,-0.06750054,0.0,0.0
0.09232752,0.332003,-0.012335918,0.0,0.0
0.29347637,-0.117558286,-0.036651373,0.0,0.0
0.20724656,0.09433145,-0.14294104,0.0,0.0
0.06590942,-0.18111816,0.2900728,0.0,0.0
0.5951955,-0.15731494,-0.060314897,0.0,0.0
-0.0518022,-0.20828894,0.030533496,0.0,0.0
0.9870008,0.09678399,-0.057722576,0.0,0.0
0.12602006,-0.10834411,0.128719,0.0,0.0
0.030709486,0.0058470527,-0.08004025,0.0,0.0
0.35223773,0.17413896,-0.0970254,0.0,0.0
0.14678484,-0.22800894,0.18530954,0.0,0.0
-0.6261091,-0.19011755,0.13710025,0.0,0.0
-0.43956566,-0.0745658,-0.048642147,0.0,0.0
0.06690248,0.26759842,-0.071474984,0.0,0.0
0.23974127,-0.07928978,0.08208142,0.0,0.0
0.6603125,-0.18104449,0.07540965,0.0,0.0
0.58631146,0.06554513,-0.05027359,0.0,0.0
0.17508458,0.22814511,-0.0012408444,0.0,0.0
0.29762086,0.052655064,-0.03466754,0.0,0.0
-0.8614297,-0.03292187,-0.13038792,0.0,0.0
0.9302632,0.38555315,-0.10230238,0.0,0.0
0.18278445,0.0033692466,-0.15414768,0.0,0.0
-0.34191048,-0.13752885,0.14443065,0.0,0.0
0.34099367,0.28587914,-0.07898949,0.0,0.0
-0.28863946,-0.12022776,0.23609282,0.0,0.0
-0.5760648,-0.056571584,-0.07227266,0.0,0.0
-0.3245954,0.19964688,-0.08255992,0.0,0.0
0.07084015,-0.097086385,-0.031641845,0.0,0.0
-0.7436587,-0.023947151,-0.050850824,0.0,0.0
-0.84423536,-0.024097648,-0.1937467,0.0,0.0
-0.7457025,0.2318414,-0.11992336,0.0,0.0
0.5955954,-0.18345815,-0.1260127,0.0,0.0
-0.39348593,0.14235334,-0.108541735,0.0,0.0
-0.60895824,-0.24913502,-0.004295773,0.0,0.0
0.34859756,-0.19943467,-0.087835364,0.0,0.0
-0.5055932,0.1571976,-0.10562654,0.0,0.0
0.709564,-0.10571864,-0.11066592,0.0,0.0
0.1471704,-0.17245318,0.01629362,0.0,0.0
0.56529295,0.12149857,0.29493824,0.0,0.0
0.4819107,-0.13107754,0.019264007,0.0,0.0
-0.88879126,-0.16764523,-0.20670387,0.0,0.0
-0.5439198,-0.24108134,0.08643469,0.0,0.0
-0.1336283,0.2294213,-0.15863176,0.0,0.0
-0.694748,-0.34122384,0.13697372,0.0,0.0
0.63026625,-0.1754426,0.15724087,0.0,0.0
-0.60450554,0.028735392,-0.024342109,0.0,0.0
-0.6499645,-0.008738775,-0.1256136,0.0,0.0
0.39349478,0.24380662,-0.059290893,0.0,0.0
-0.24058872,0.18947609,-0.112941846,0.0,0.0
0.5496361,-0.26073346,-0.05663831,0.0,0.0
-0.7339294,-0.22666241,-0.02697544,0.0,0.0
0.27234334,-0.21346673,-0.066857964,0.0,0.0
0.51752955,0.17375764,0.07584929,0.0,0.0
-0.7502081,0.17804395,-0.11161051,0.0,0.0
-0.4194062,-0.14341317,0.13974652,0.0,0.0
-0.13247156,-0.055738885,0.080821335,0.0,0.0
-0.43426692,-0.10182006,0.083925925,0.0,0.0
0.008119213,-0.236733,0.33318815,0.0,0.0
0.5041789,-0.057740923,0.031180006,0.0,0.0
-0.2305867,-0.081849776,0.09225615,0.0,0.0
0.27686384,0.044667568,-0.12018953,0.0,0.0
0.8877328,0.079575405,-0.1368512,0.0,0.0
0.47023448,0.19050905,-0.10185899,0.0,0.0
0.1469056,-0.077476844,-0.029184645,0.0,0.0
-0.38239866,0.21549168,-0.11663639,0.0,0.0
0.48548403,-0.10037288,0.009465301,0.0,0.0
0.6678196,0.32573995,-0.09681586,0.0,0.0
-0.72164744,0.074840195,-0.12364442,0.0,0.0
-0.38219747,-0.23937763,0.14903623,0.0,0.0
0.3465137,-0.22339143,-0.0071840673,0.0,0.0
0.41999385,-0.099043645,-0.16072915,0.0,0.0
-0.57419044,-0.14689186,-0.17436504,0.0,0.0
0.55556977,-0.0824296,-0.11813831,0.0,0.0
-0.06214795,-0.13686274,0.081212886,0.0,0.0
-0.41870096,-0.00766824,-0.015499087,0.0,0.0
0.31775475,-0.20269321,-0.102505736,0.0,0.0
0.35279596,0.009393505,-0.033604413,0.0,0.0
0.42221007,-0.11267088,0.056518372,0.0,0.0
-0.09757383,-0.191916,0.09887448,0.0,0.0
0.762191,-0.13646573,0.08242957,0.0,0.0
0.28203928,0.069077894,-0.025292322,0.0,0.0
0.3615572,0.3244004,-0.09703509,0.0,0.0
-0.667353,-0.081557095,0.06282766,0.0,0.0
-0.12966539,0.039651524,-0.023538958,0.0,0.0
0.53618467,0.14218357,-0.019611321,0.0,0.0
0.03888918,-0.1508015,0.1316492,0.0,0.0
0.28348285,-0.27861282,-0.034783244,0.0,0.0
0.19116674,0.074511796,-0.1381242,0.0,0.0
-0.59717155,-0.11423534,0.11396636,0.0,0.0
0.119805805,-0.1560901,0.0191343,0.0,0.0
0.27136227,-0.03720328,-0.08047007,0.0,0.0
0.25030616,0.21061985,0.055485155,0.0,0.0
-0.14847614,0.19505897,-0.0839899,0.0,0.0
0.38624403,-0.20663145,0.10290289,0.0,0.0
0.853763,-0.042520378,-0.085941605,0.0,0.0
0.43646193,-0.058712598,0.07346883,0.0,0.0
0.030868527,0.006560011,-0.052171037,0.0,0.0
-0.63179845,-0.1525977,0.08315482,0.0,0.0
0.016478393,-0.06320455,-0.009497192,0.0,0.0
0.08792565,0.28581128,-0.08933917,0.0,0.0
-0.7691476,-0.04577743,-0.02367467,0.0,0.0
0.018862762,0.10479461,-0.07885906,0.0,0.0
-0.35560125,0.02164965,-0.014243654,0.0,0.0
0.4103065,0.19462724,0.13745874,0.0,0.0
-0.3746313,-0.26086906,-0.002925327,0.0,0.0
-0.68234116,-0.009676445,-0.055316463,0.0,0.0
0.0293584,-0.20510016,0.25006106,0.0,0.0
0.4869887,0.06387724,-0.14285305,0.0,0.0
0.093692936,0.16723281,-0.10352399,0.0,0.0
-0.1970621,-0.17151791,0.18785514,0.0,0.0
0.36967385,0.0620757,-0.13662864,0.0,0.0
-0.5911797,-0.07512213,0.023632769,0.0,0.0
-0.32627046,0.092536524,-0.06002444,0.0,0.0
-0.3393028,0.27627447,-0.0830737,0.0,0.0
0.86286217,-0.05737506,-0.05783571,0.0,0.0
-0.15276246,-0.18686356,-0.034962248,0.0,0.0
-0.120672576,-0.1910121,0.08251254,0.0,0.0
0.95979005,-0.10979059,-0.14599882,0.0,0.0
-0.073854536,0.11938886,-0.0743013,0.0,0.0
-0.47584394,-0.03309226,-0.04761659,0.0,0.0
-0.714928,-0.042041056,-0.019777872,0.0,0.0
0.5751752,-0.2588565,0.21625566,0.0,0.0
-0.4885623,-0.047501083,-0.0009050191,0.0,0.0
-0.23502195,0.20986249,-0.11103315,0.0,0.0
-0.47446847,0.12832421,-0.011934991,0.0,0.0
-0.3232377,-0.106739685,-0.13085516,0.0,0.0
0.43237835,-0.10374034,0.16735342,0.0,0.0
-0.38840398,-0.053798024,0.031844825,0.0,0.0
0.8118709,-0.022195153,-0.01910902,0.0,0.0
-0.072048925,0.1667305,-0.03638099,0.0,0.0
0.2857374,0.04611789,-0.08815449,0.0,0.0
0.34462562,-0.050217535,0.13353977,0.0,0.0
-0.03613059,-0.14704078,0.23344822,0.0,0.0
-0.21109778,-0.14917177,0.009111919,0.0,0.0
-0.3639186,-0.123454295,0.18308821,0.0,0.0
0.5282462,-0.049520772,-0.12793896,0.0,0.0
-0.12863064,-0.19325651,0.050258014,0.0,0.0
0.25552893,-0.08155837,-0.042932477,0.0,0.0
-0.5031273,-0.10356508,0.009699431,0.0,0.0
0.5282127,0.03389022,-0.07910855,0.0,0.0
-0.075486116,-0.048726752,-0.010997127,0.0,0.0
-0.735821,-0.09527168,-0.052994154,0.0,0.0
-0.6765718,0.12659444,-0.15540752,0.0,0.0
-0.5582639,-0.074040905,-0.04968293,0.0,0.0
0.76049,-0.15527251,-0.109197095,0.0,0.0
0.10843786,0.04623684,0.023197701,0.0,0.0
0.3648907,0.33716783,-0.062249012,0.0,0.0
-0.5704677,-0.10051841,0.032870054,0.0,0.0
0.45160323,-0.015640821,-0.050174646,0.0,0.0
0.29326364,-0.06430399,0.13580614,0.0,0.0
-0.5012005,0.08877279,-0.10514847,0.0,0.0
-0.33090934,-0.046124108,-0.1313886,0.0,0.0
-0.20657219,-0.032852493,0.08789556,0.0,0.0
0.43794915,-0.069555245,-0.049392473,0.0,0.0
-0.17910254,0.04106002,-0.14116022,0.0,0.0
0.5162784,0.37327388,-0.09825226,0.0,0.0
0.44965017,-0.06605152,0.19308338,0.0,0.0
0.24512614,0.11462571,-0.11666373,0.0,0.0
0.126467,0.3055792,-0.07603005,0.0,0.0
0.66971874,-0.046442837,-0.04785159,0.0,0.0
-0.73932064,-0.18581976,-0.13471974,0.0,0.0
-0.04574765,0.16705814,-0.07773344,0.0,0.0
0.3211782,-0.109970726,0.18738437,0.0,0.0
-0.6236246,-0.22175135,-0.0563689,0.0,0.0
-0.27843314,-0.038681075,-0.029795289,0.0,0.0
-0.721532,-0.14381441,0.124263726,0.0,0.0
0.1323969,-0.18346965,0.07680525,0.0,0.0
0.5774352,0.010056933,-0.117760524,0.0,0.0
-0.5820954,0.18552679,-0.12094836,0.0,0.0
-0.6385658,-0.01887585,-0.08327821,0.0,0.0
-0.600927,-0.17878374,0.24247006,0.0,0.0
0.1951952,0.0957667,-0.12856649,0.0,0.0
0.24837029,-0.07738543,-0.034555487,0.0,0.0
0.56967527,-0.101092234,-0.14539364,0.0,0.0
-0.0043623755,-0.095519915,0.18252613,0.0,0.0
0.544833,-0.19917001,-0.076310255,0.0,0.0
-0.34541488,-0.122776255,0.20009516,0.0,0.0
0.599543,-0.17764352,0.20745233,0.0,0.0
-0.3779875,0.023971852,-0.116711564,0.0,0.0
-0.68792653,-0.21099196,0.11959297,0.0,0.0
-0.13387181,0.02188419,-0.14871539,0.0,0.0
-0.09203008,-0.037418492,-0.03932325,0.0,0.0
-0.1914086,-0.1691589,-0.016750226,0.0,0.0
-0.15284574,-0.09377493,0.10858696,0.0,0.0
0.34669325,-0.07828265,-0.15545776,0.0,0.0
-0.23703098,0.09417952,-0.12533526,0.0,0.0
-0.21639633,-0.06654563,0.01671344,0.0,0.0
0.30743134,-0.14001666,0.012345583,0.0,0.0
-0.516927,-0.063734174,-0.004236299,0.0,0.0
0.13962735,0.06730337,-0.11324131,0.0,0.0
0.59193695,-0.027128492,-0.11797749,0.0,0.0
-0.7958814,-0.14202842,0.052389007,0.0,0.0
-0.051983178,0.11952568,-0.10530948,0.0,0.0
0.18872344,-0.020228645,0.11003205,0.0,0.0
-0.8086344,-0.113544196,-0.015324925,0.0,0.0
-0.15496811,0.09977779,-0.035604,0.0,0.0
0.69711465,-0.20380706,-0.07925339,0.0,0.0
0.33329594,-0.056102384,0.073675774,0.0,0.0
-0.4643112,0.1553918,-0.11622537,0.0,0.0
-0.114823714,-0.11570162,0.14543986,0.0,0.0
0.22790353,0.07705461,-0.120169826,0.0,0.0
-0.56220245,0.18835355,-0.10094478,0.0,0.0
-0.6413541,-0.20554799,-0.054147862,0.0,0.0
-0.5303087,0.11861782,-0.14313626,0.0,0.0
0.07249356,0.24403074,-0.12387591,0.0,0.0
-0.7237242,0.046837833,-0.006808458,0.0,0.0
0.037673324,-0.079813905,0.10784415,0.0,0.0
-0.21289948,-0.017931335,-0.08736121,0.0,0.0
-0.3397386,-0.14020787,-0.1723623,0.0,0.0
-0.7880206,0.007713374,0.11794722,0.0,0.0
-0.6033327,-0.23993093,-0.033827517,0.0,0.0
0.47975153,0.24830389,-0.10522437,0.0,0.0
0.62545955,0.016263468,-0.025374437,0.0,0.0
0.010881774,-0.17279905,0.05959484,0.0,0.0
-0.5205986,0.08247979,-0.14385402,0.0,0.0
-0.07815172,-0.2435607,-0.05338027,0.0,0.0
-0.5619003,-0.041721407,0.047985446,0.0,0.0
-0.08120801,0.0700711,-0.07929398,0.0,0.0
0.41532797,0.13307284,-0.09448057,0.0,0.0
0.07437805,-0.05817969,0.15035363,0.0,0.0
0.022420833,0.18987969,-0.10494707,0.0,0.0
0.5495541,0.1726031,-0.07332493,0.0,0.0
0.58077985,-0.029601691,-0.15928628,0.0,0.0
-0.51537937,0.18882468,-0.062225293,0.0,0.0
-0.5365846,0.0008503702,0.004735112,0.0,0.0
-0.040524613,-0.34635252,0.30341986,0.0,0.0
-0.2312804,0.050430298,-0.027286343,0.0,0.0
0.48282745,0.15375933,-0.14046133,0.0,0.0
-0.7366704,-0.16940539,-0.1444836,0.0,0.0
0.2718343,-0.016909016,0.10810963,0.0,0.0
0.19400038,0.281352,-0.13132973,0.0,0.0
0.33724242,-0.21484603,-0.034273315,0.0,0.0
0.12018739,-0.2756426,0.21746491,0.0,0.0
-0.7039956,0.028699355,-0.07574164,0.0,0.0
0.0720551,0.023453254,0.018603606,0.0,0.0
0.47102678,0.04954907,-0.061883427,0.0,0.0
-0.70689404,0.09666409,0.038866088,0.0,0.0
-0.074976556,-0.0073452583,-0.012627577,0.0,0.0
-0.45895684,-0.10131697,0.15088522,0.0,0.0
-0.41835532,-0.077199265,0.12984808,0.0,0.0
-0.045940604,-0.035599187,-0.1010919,0.0,0.0
0.15261427,0.046386234,-0.08599793,0.0,0.0
-0.85087454,0.103906445,-0.14064154,0.0,0.0
0.617563,0.035700716,-0.059660964,0.0,0.0
0.51320684,-0.053230494,0.16626993,0.0,0.0
0.6389692,-0.19144332,-0.06050783,0.0,0.0
0.20221,-0.11684909,0.065281376,0.0,0.0
-0.5020417,-0.0051544867,-0.06754413,0.0,0.0
0.24476284,0.053317435,-0.12344274,0.0,0.0
0.40986,-0.09999243,0.07429147,0.0,0.0
-0.1159194,-0.16283938,0.15654665,0.0,0.0
-0.62164104,0.04194384,0.14051634,0.0,0.0
-0.44106904,-0.028707631,-0.027968459,0.0,0.0
-0.27433145,0.048592806,-0.15608218,0.0,0.0
0.38338953,-0.11551989,0.19946858,0.0,0.0
0.06258709,-0.04472939,-0.11974909,0.0,0.0
-0.5648447,0.13044073,-0.07334437,0.0,0.0
0.26165912,-0.19627398,0.23271543,0.0,0.0
-0.11243326,-0.027707623,-0.012543116,0.0,0.0
-0.5051769,0.123547725,-0.09928937,0.0,0.0
-0.4526027,0.108818695,-0.020845965,0.0,0.0
0.56162524,-0.035106998,-0.10280282,0.0,0.0
0.1330732,0.020082444,0.071647346,0.0,0.0
0.36913764,-0.20429343,0.2766305,0.0,0.0
0.19116817,0.05511133,-0.11445254,0.0,0.0
0.42471814,0.32698697,0.08184295,0.0,0.0
0.33703724,-0.04899575,0.17278391,0.0,0.0
0.15645395,0.24703726,-0.01200472,0.0,0.0
-0.48331943,0.3988306,-0.09019284,0.0,0.0
0.41495198,-0.22323099,0.1560745,0.0,0.0
-0.32554695,-0.26594275,0.10638523,0.0,0.0
-0.6109542,-0.14106643,0.103925586,0.0,0.0
0.3328455,-0.10691427,0.23823433,0.0,0.0
-0.1398355,0.10831228,-0.08452665,0.0,0.0
0.5391645,-0.10740212,-0.04811614,0.0,0.0
-0.29527876,-0.041499406,0.08297282,0.0,0.0
-0.52915573,-0.20626341,-0.03617973,0.0,0.0
0.4832039,0.3195108,-0.0943606,0.0,0.0
0.49558324,-0.006737386,-0.07030678,0.0,0.0
0.047287334,0.07084137,-0.12490126,0.0,0.0
-0.20071812,0.42923334,-0.10762326,0.0,0.0
0.16383715,-0.10295705,-0.064366184,0.0,0.0
0.3808804,0.09564111,-0.16115233,0.0,0.0
0.45530456,0.19374342,-0.13722482,0.0,0.0
0.3713152,0.0007093245,0.02142729,0.0,0.0
-0.15080884,0.06584676,0.006414856,0.0,0.0
-0.16986626,-0.22377142,0.0699217,0.0,0.0
-0.34147558,0.004985707,-0.107995555,0.0,0.0
-0.5136957,0.11443243,-0.1126267,0.0,0.0
-0.80269724,0.050336786,-0.08241366,0.0,0.0
-0.047234602,-0.080510594,-0.011106046,0.0,0.0
0.34318268,-0.07531576,0.15729254,0.0,0.0
-0.59591115,0.004855104,-0.10227986,0.0,0.0
0.40892595,-0.039666202,0.027197573,0.0,0.0
0.2582143,-0.15472606,0.080122255,0.0,0.0
-0.5977021,0.38476512,-0.12882671,0.0,0.0
-0.76016253,-0.07733718,-0.14215754,0.0,0.0
0.60121703,0.06818165,-0.103728525,0.0,0.0
-0.644474,-0.10285016,-0.017516134,0.0,0.0
-0.4257337,-0.07859815,-0.094805986,0.0,0.0
-0.047942404,-0.10999735,-0.04688696,0.0,0.0
0.20528121,-0.0885344,-0.19273436,0.0,0.0
0.016420038,0.20388232,-0.071973294,0.0,0.0
-0.21064408,-0.08171256,-0.1125061,0.0,0.0
0.47707325,-0.100465156,-0.032282922,0.0,0.0
-0.5115882,-0.16188736,0.18821092,0.0,0.0
0.3398716,0.11737497,-0.13085097,0.0,0.0
-0.15401904,-0.18977581,0.13563365,0.0,0.0
-0.7248765,-0.14899965,-0.03817318,0.0,0.0
0.67506796,0.048122812,-0.029857358,0.0,0.0
-0.38404766,0.048567425,0.01743619,0.0,0.0
-0.63166547,-0.052801788,-0.025884347,0.0,0.0
-0.47502878,-0.084094375,0.09351406,0.0,0.0
0.38607192,-0.18212461,-0.033352684,0.0,0.0
0.4301306,0.10975068,-0.05269429,0.0,0.0
-0.10764071,-0.17002283,0.14684075,0.0,0.0
0.83161116,-0.04655931,-0.0695101,0.0,0.0
0.28575918,-0.028983586,-0.040939167,0.0,0.0
-0.2745358,-0.097872846,-0.044576973,0.0,0.0
-0.6034254,-0.09744558,-0.112389594,0.0,0.0
-0.24123171,-0.03667416,-0.04409491,0.0,0.0
0.6848446,-0.15960822,0.20231323,0.0,0.0
-0.53138554,-0.064621784,0.056412905,0.0,0.0
-0.12561327,-0.04114345,0.17729028,0.0,0.0
0.1174494,-0.088593744,-0.15643607,0.0,0.0
-0.39691666,0.08268248,-0.09189205,0.0,0.0
0.30856374,-0.17988011,0.1099853,0.0,0.0
-0.12921289,-0.3193607,0.27777734,0.0,0.0
0.23295449,-0.29122588,-0.035846867,0.0,0.0
-0.23192386,0.23300175,-0.0973715,0.0,0.0
-0.016151708,0.24124135,-0.014795648,0.0,0.0
0.12993819,-0.11452849,0.031005977,0.0,0.0
-0.010796386,0.041681193,-0.107790396,0.0,0.0
-0.3663153,-0.014580498,-0.095439754,0.0,0.0
0.056944292,-0.10246518,0.0074284864,0.0,0.0
0.16722785,0.012822481,0.047265097,0.0,0.0
0.5967344,0.5631428,-0.15436149,0.0,0.0
0.45237264,0.004374713,-0.14762902,0.0,0.0
-0.0043152045,0.04310515,-0.08357659,0.0,0.0
-0.45205146,0.19369015,-0.18348077,0.0,0.0
0.15633593,0.005076931,-0.124547504,0.0,0.0
-0.46728748,-0.1658989,0.21415271,0.0,0.0
0.07329668,0.17976499,-0.063389815,0.0,0.0
-0.6261727,-0.18745065,0.19467254,0.0,0.0
0.4416401,0.20947313,-0.058714174,0.0,0.0
-0.35349098,-0.0021737209,-0.07593641,0.0,0.0
0.45803276,-0.08902103,-0.03797548,0.0,0.0
0.75614315,0.020528622,-0.14225534,0.0,0.0
-0.9060258,-0.030944787,-0.04648395,0.0,0.0
-0.09328222,0.07021618,-0.08329464,0.0,0.0
-0.17901202,-0.16526629,-0.09199092,0.0,0.0
-0.40839767,-0.21491788,0.103136204,0.0,0.0
0.33680514,0.05140308,-0.10814306,0.0,0.0
0.55303997,-0.25356898,-0.010026314,0.0,0.0
-0.22275202,-0.08605083,-0.030724684,0.0,0.0
0.39124796,-0.17669894,-0.07990369,0.0,0.0
0.7620084,-0.07029649,-0.08022607,0.0,0.0
0.7285896,-0.043012165,-0.057448905,0.0,0.0
-0.2963438,-0.00014556851,0.13306841,0.0,0.0
0.32444385,-0.039254904,0.03576474,0.0,0.0
0.54914075,-0.055942357,-0.08426624,0.0,0.0
0.5243208,0.21481149,-0.065692,0.0,0.0
0.3048348,-0.094783254,0.16060236,0.0,0.0
0.6250072,0.00026121933,-0.12615502,0.0,0.0
0.041945133,0.03883858,-0.06554839,0.0,0.0
0.48899072,-0.21913019,0.2160814,0.0,0.0
0.40832296,-0.10796074,0.1885881,0.0,0.0
0.2410119,-0.21440814,0.23921902,0.0,0.0
0.34586123,-0.15342751,-0.052135304,0.0,0.0
0.13070942,0.37452766,-0.07306823,0.0,0.0
0.56147057,-0.19478156,0.11286817,0.0,0.0
0.5508635,-0.09401055,0.2962043,0.0,0.0
0.010637027,0.09930409,0.024919577,0.0,0.0
0.3386644,-0.1669134,0.19249512,0.0,0.0
0.36855125,0.062103927,-0.09555776,0.0,0.0
-0.11118126,-0.016681597,-0.16340493,0.0,0.0
-0.8514952,-0.08738772,-0.09922524,0.0,0.0
0.465086,-0.19001926,0.09429324,0.0,0.0
0.41760063,-0.19633292,0.28077975,0.0,0.0
0.30512014,-0.1770571,-0.059136443,0.0,0.0
0.17082475,-0.092243835,0.092351064,0.0,0.0
0.043244228,0.061860744,-0.049375143,0.0,0.0
-0.6145939,-0.0022029146,-0.12471611,0.0,0.0
0.7495632,-0.28239244,0.28611043,0.0,0.0
-0.5631243,-0.14451851,-0.15368606,0.0,0.0
-0.64140856,-0.07991282,0.052691605,0.0,0.0
0.5983549,-0.10740813,0.009631791,0.0,0.0
0.3873917,0.15806517,-0.034572415,0.0,0.0
-0.030642027,0.12353533,-0.10579855,0.0,0.0
-0.78002834,-0.25356206,-0.035844583,0.0,0.0
0.076654956,0.026623437,-0.144446,0.0,0.0
-0.5203725,-0.25297406,0.115674384,0.0,0.0
-0.43922114,-0.2602319,0.06579161,0.0,0.0
0.48171794,-0.20895115,0.010115503,0.0,0.0
-0.55053866,-0.030518988,0.0020436726,0.0,0.0
0.17379913,-0.13370934,-0.14407915,0.0,0.0
0.16669254,0.17634636,-0.09307425,0.0,0.0
-0.13416693,0.15568005,0.04892519,0.0,0.0
0.22857063,0.032252293,-0.013178794,0.0,0.0
0.3785791,-0.20145474,-0.044972852,0.0,0.0
-0.16285478,-0.20008758,0.20317589,0.0,0.0
-0.021902954,-0.27523237,0.084788546,0.0,0.0
-0.48000282,-0.11668735,-0.16262123,0.0,0.0
0.10472214,-0.006320051,-0.038464926,0.0,0.0
-0.66053796,-0.07336311,-0.041627508,0.0,0.0
0.036091667,0.1359955,-0.11743469,0.0,0.0
-0.8196164,-0.10742089,0.091803655,0.0,0.0
-0.03912154,-0.05935913,0.014404969,0.0,0.0
0.4687794,0.10050966,-0.14983752,0.0,0.0
0.35726872,0.004291283,-0.038971893,0.0,0.0
-0.71490943,0.20242108,-0.114472665,0.0,0.0
-0.22535639,-0.05094548,-0.014670111,0.0,0.0
0.39071113,-0.07750447,-0.16666268,0.0,0.0
0.4270732,0.02319232,-0.092341594,0.0,0.0
0.65208954,-0.0148138665,-0.16081564,0.0,0.0
-0.23411931,-0.030094871,0.011028575,0.0,0.0
0.57826203,0.0165215,-0.022831164,0.0,0.0
-0.8678368,-0.0021593368,-0.09319778,0.0,0.0
0.5169123,-0.11390905,0.014821775,0.0,0.0
0.41484454,-0.13694867,-0.11660181,0.0,0.0
0.1923884,0.057592534,-0.11578661,0.0,0.0
-0.35404116,-0.21527466,0.22257373,0.0,0.0
-0.20854773,0.030714596,-0.06921526,0.0,0.0
0.77880126,0.15525903,-0.06723012,0.0,0.0
0.2119266,0.008890665,-0.01845423,0.0,0.0
-0.107123226,0.14621362,-0.12502778,0.0,0.0
0.5200174,0.31954625,0.10568998,0.0,0.0
-0.18774857,-0.047362234,0.04075989,0.0,0.0
-0.6875802,-0.21469268,0.060159773,0.0,0.0
-0.7071382,-0.014818676,-0.100860044,0.0,0.0
0.59985125,0.058982816,-0.11661531,0.0,0.0
0.7205616,0.01818855,-0.17726877,0.0,0.0
0.83287346,0.26234472,-0.07124424,0.0,0.0
-0.23099528,-0.1489105,-0.12303056,0.0,0.0
-0.45828137,-0.056103367,-0.1672144,0.0,0.0
0.5033969,-0.06665349,0.060964443,0.0,0.0
-0.07148209,0.124317996,-0.02251724,0.0,0.0
0.47066107,0.12661868,-0.032586742,0.0,0.0
0.5948726,0.16295448,-0.12926771,0.0,0.0
-0.73458457,-0.05499046,-0.121427156,0.0,0.0
0.13761322,-0.048887976,0.02830278,0.0,0.0
0.5336121,-0.04613623,0.049929753,0.0,0.0
-0.77945644,-0.09057633,-0.07267284,0.0,0.0
-0.784602,-0.07750356,-0.029312098,0.0,0.0
0.14076453,0.06456467,-0.06692123,0.0,0.0
0.39402696,-0.06464899,0.09003108,0.0,0.0
0.3511802,-0.14010604,0.14758548,0.0,0.0
0.16907416,0.13720939,-0.04026336,0.0,0.0
-0.42713684,-0.06785706,0.009811379,0.0,0.0
0.44424194,0.037317205,-0.062906824,0.0,0.0
0.114847764,-0.039303277,-0.012760868,0.0,0.0
-0.033940565,-0.24039403,0.16724901,0.0,0.0
0.4553685,-0.17471765,0.02306662,0.0,0.0
-0.74775684,-0.060973864,-0.0032462073,0.0,0.0
-0.12643084,-0.010689329,-0.032723356,0.0,0.0
0.1648393,-0.13734917,-0.15917724,0.0,0.0
-0.040146444,0.053668167,-0.068163626,0.0,0.0
0.49319866,-0.05168197,0.07585093,0.0,0.0
-0.15546031,0.12267668,0.094134584,0.0,0.0
-1.1287127,0.036895797,0.04006851,0.0,0.0
0.075155154,-0.023881936,-0.0617523,0.0,0.0
-0.17944062,-0.1782186,0.26483232,0.0,0.0
0.46759376,-0.11491243,0.00086422096,0.0,0.0
-0.28132656,-0.09976301,0.0743634,0.0,0.0
0.65966034,0.21499157,-0.15558504,0.0,0.0
-0.30448404,0.14967525,-0.01404243,0.0,0.0
0.7525141,-0.10139902,-0.09833397,0.0,0.0
0.340925,-0.12792817,-0.122282326,0.0,0.0
-0.79046744,0.19465595,-0.16020548,0.0,0.0
-0.77365315,0.2615509,-0.09640714,0.0,0.0
-0.12128316,-0.15485562,0.015355899,0.0,0.0
0.22677219,-0.023732604,0.0076601896,0.0,0.0
-0.44962645,0.30702218,-0.08138187,0.0,0.0
-0.21185222,0.11263355,-0.05225373,0.0,0.0
0.040980347,-0.19179446,0.14678001,0.0,0.0
0.41495878,0.33584157,-0.0073633804,0.0,0.0
0.12256497,-0.18527818,0.11041236,0.0,0.0
0.3947974,-0.03274419,-0.045651916,0.0,0.0
0.41768023,0.040717706,-0.007541357,0.0,0.0
-0.81032354,-0.11385826,-0.047723696,0.0,0.0
0.7155781,0.019007904,-0.09464729,0.0,0.0
-0.31186098,-0.25317803,-0.0282092,0.0,0.0
-0.100495085,-0.003026559,0.1311963,0.0,0.0
0.472893,0.04539711,-0.13151805,0.0,0.0
0.082636476,0.06577982,-0.053840302,0.0,0.0
0.31898457,0.29549283,-0.05583825,0.0,0.0
-0.3370563,0.034392938,0.0004997117,0.0,0.0
0.56051195,0.017697824,-0.0064318497,0.0,0.0
-0.09141763,0.24839261,-0.06624913,0.0,0.0
-0.18213677,-0.35334674,0.23313217,0.0,0.0
-0.37318084,0.20934507,-0.051247593,0.0,0.0
-0.38575542,-0.07639837,0.10016979,0.0,0.0
-0.6167506,0.19725823,0.060474887,0.0,0.0
-0.19103572,-0.019089527,-0.15765907,0.0,0.0
-0.28809914,0.039395425,-0.05537582,0.0,0.0
0.595277,-0.12534006,-0.116623096,0.0,0.0
-0.03690247,0.19522394,-0.03148908,0.0,0.0
0.5996209,-0.012190606,-0.161727,0.0,0.0
-0.31868514,0.00020733889,-0.07142169,0.0,0.0
-0.1576967,0.084996976,-0.16258146,0.0,0.0
0.44806856,-0.12074142,-0.05131446,0.0,0.0
-0.56246424,-0.23915642,0.12963374,0.0,0.0
-0.52926445,-0.09474439,-0.04304449,0.0,0.0
0.6130495,-0.014104617,-0.16869393,0.0,0.0
0.6154758,0.30198687,-0.10865441,0.0,0.0
0.8137748,-0.073331915,-0.062885895,0.0,0.0
-0.8016693,-0.2163421,0.041534577,0.0,0.0
0.06363321,-0.10161971,0.10640468,0.0,0.0
0.680125,-0.16757976,-0.107071735,0.0,0.0
0.4448375,-0.115439594,0.17646585,0.0,0.0
0.4625303,0.10692195,-0.145281,0.0,0.0
-0.14052589,-0.03445474,0.08067501,0.0,0.0
0.28271514,0.2559685,-0.05265598,0.0,0.0
-0.072308585,0.305723,-0.0639306,0.0,0.0
0.35664883,-0.27271456,0.3677674,0.0,0.0
0.0032320248,-0.067145355,0.14432564,0.0,0.0
-0.20244443,-0.00046161847,-0.11624996,0.0,0.0
-0.65177375,-0.1501372,0.14693186,0.0,0.0
0.49803048,-0.16905421,0.06094563,0.0,0.0
-0.17590897,-0.032607425,0.09181774,0.0,0.0
-0.176558,-0.17611264,0.15955104,0.0,0.0
0.49787232,-0.010043436,0.016336469,0.0,0.0
0.29368457,0.24354751,-0.046564467,0.0,0.0
-0.5885891,-0.075619996,0.018279161,0.0,0.0
0.118558794,-0.23942871,0.118423596,0.0,0.0
-0.12470927,0.07457009,-0.05383429,0.0,0.0
0.03991074,0.008185999,-0.12643549,0.0,0.0
-0.035909437,-0.089594506,-0.0069045257,0.0,0.0
0.023311252,-0.10841773,0.10426598,0.0,0.0
-0.021112747,-0.16917838,0.28088108,0.0,0.0
-0.15560439,-0.0034061775,-0.07873976,0.0,0.0
0.010471242,-0.04465998,-0.12296709,0.0,0.0
-0.3301359,0.015195667,-0.13349833,0.0,0.0
-0.64825284,-0.0154475905,0.08490252,0.0,0.0
0.058450226,0.11944685,-0.08855585,0.0,0.0
-0.73641217,-0.02827827,-0.15345272,0.0,0.0
-0.8534869,-0.07685908,-0.15481113,0.0,0.0
0.34492305,-0.026227633,0.07183753,0.0,0.0
0.39858317,-0.09138836,0.15530844,0.0,0.0
-0.38202673,-0.048606236,0.050881058,0.0,0.0
0.30904734,0.18516102,-0.12104476,0.0,0.0
0.82165074,-0.08648112,-0.018699078,0.0,0.0
-0.38464385,-0.043957774,-0.05163062,0.0,0.0
-0.5837098,-0.16946468,0.24319822,0.0,0.0
-0.23157912,0.2069706,-0.12800334,0.0,0.0
0.28500432,-0.21251003,-0.011201766,0.0,0.0
-0.17715295,0.1503871,-0.06759276,0.0,0.0
0.40706635,-0.05789941,0.03997291,0.0,0.0
0.47158253,0.05936619,-0.10219788,0.0,0.0
0.14708692,0.213373,-0.020700697,0.0,0.0
0.28178054,0.07866553,-0.14532979,0.0,0.0
0.13378383,-0.21600081,0.18983218,0.0,0.0
-0.2824367,0.020001514,-0.07358094,0.0,0.0
-0.6735768,-0.18585546,-0.08148827,0.0,0.0
-0.5638582,-0.044261783,-0.18943052,0.0,0.0
0.822667,-0.2083538,0.11544712,0.0,0.0
0.2025892,0.26656497,-0.12053156,0.0,0.0
0.33321097,-0.19450045,-0.10177519,0.0,0.0
0.066674486,-0.14584185,0.18739788,0.0,0.0
-0.67986214,0.010739056,-0.078996375,0.0,0.0
0.43258688,-0.07073203,-0.11554776,0.0,0.0
0.4875572,-0.087288894,0.0544857,0.0,0.0
0.23394418,0.025320765,-0.042935763,0.0,0.0
0.0631204,0.013816752,-0.056962885,0.0,0.0
0.11427184,-0.07781385,-0.08486749,0.0,0.0
0.55208653,0.12796383,-0.1356861,0.0,0.0
-0.6135846,-0.13812292,-0.1241802,0.0,0.0
-0.060263388,0.27595285,0.39060584,0.0,0.0
0.7399967,-0.21661991,0.19283706,0.0,0.0
0.24279389,-0.00959451,-0.04814705,0.0,0.0
0.15988165,-0.18710959,-0.07822361,0.0,0.0
-0.20078461,-0.19621107,-0.11053586,0.0,0.0
-0.8181656,0.081571996,-0.082167156,0.0,0.0
-0.4654803,-0.10268388,0.09652845,0.0,0.0
0.013476622,-0.27478704,0.3096545,0.0,0.0
-0.40120035,-0.13844523,-0.06854569,0.0,0.0
0.29666856,-0.043913577,0.101000614,0.0,0.0
-0.12797181,0.26357162,-0.060910784,0.0,0.0
-0.12734833,-0.14978878,-0.04415362,0.0,0.0
-0.08142985,0.14116092,-0.097131476,0.0,0.0
0.40227798,0.13618729,-0.11145554,0.0,0.0
0.11172232,0.04234209,-0.062135994,0.0,0.0
0.14193721,0.11145275,-0.09918881,0.0,0.0
0.44926065,0.20848386,-0.0882834,0.0,0.0
0.8036653,-0.015905853,-0.09532612,0.0,0.0
0.60253954,0.10060199,-0.15067008,0.0,0.0
0.01823476,-0.06430123,0.30362543,0.0,0.0
0.27738723,0.01287248,-0.1400201,0.0,0.0
0.67356855,-0.013389613,-0.061089337,0.0,0.0
0.7947454,0.17590703,-0.15866148,0.0,0.0
0.5060195,-0.035221215,-0.017185494,0.0,0.0
0.05337382,-0.034098517,-0.01241175,0.0,0.0
0.5072624,-0.16144347,-0.069095835,0.0,0.0
-0.63079876,-0.0031459997,0.034548122,0.0,0.0
0.48482198,-0.16758546,-0.07704103,0.0,0.0
-0.38897583,-0.06785595,-0.030917283,0.0,0.0
-0.13320751,0.030970572,-0.091503054,0.0,0.0
-0.2325402,-0.1358714,0.0015219465,0.0,0.0
-0.65707934,-0.0025368987,-0.124858364,0.0,0.0
0.55687606,0.32358724,-0.050482836,0.0,0.0
0.66218203,-0.094330296,0.13586928,0.0,0.0
-0.011859159,-0.055625733,-0.010844265,0.0,0.0
0.17684607,-0.18064626,0.10280905,0.0,0.0
-0.66773003,0.08612526,-0.07940049,0.0,0.0
0.16758712,-0.15733545,0.21785142,0.0,0.0
0.077637665,0.15711136,-0.13333887,0.0,0.0
-0.13953209,-0.004120014,-0.11312706,0.0,0.0
0.27563244,-0.07272365,0.004031822,0.0,0.0
0.09121601,0.14362523,-0.1241892,0.0,0.0
-0.42037156,-0.07944049,0.006301031,0.0,0.0
-0.6940764,-0.07391948,-0.042719275,0.0,0.0
-0.9384643,-0.05438165,-0.06262692,0.0,0.0
-0.17696352,0.074976645,-0.1062029,0.0,0.0
0.0935576,0.09292833,-0.01397364,0.0,0.0
0.13202292,-0.086894274,0.17068273,0.0,0.0
0.4643409,0.05279375,-0.10345709,0.0,0.0
-0.05902009,-0.2723732,0.1647889,0.0,0.0
-0.15805097,0.015733356,-0.0150600495,0.0,0.0
-0.1123147,0.062980875,-0.108728096,0.0,0.0
-0.42267618,-0.059751585,-0.064147994,0.0,0.0
-0.66251177,-0.16418582,-0.037542302,0.0,0.0
0.6760778,0.24004635,-0.06600385,0.0,0.0
-0.15844104,0.03637113,-0.023490129,0.0,0.0
-0.42719102,0.0351729,-0.056249414,0.0,0.0
0.28267175,-0.053863052,-0.0033311187,0.0,0.0
0.47907946,-0.025042005,-0.15310442,0.0,0.0
-0.10679552,-0.2351859,-0.027858356,0.0,0.0
0.5942896,-0.04970764,0.063267276,0.0,0.0
0.4259435,-0.16767956,-0.1324655,0.0,0.0
0.38318145,0.011886484,-0.02124014,0.0,0.0
0.37209126,-0.05942163,-0.11054845,0.0,0.0
-0.24955271,-0.033690378,-0.0904643,0.0,0.0
-0.36180303,0.11694515,-0.07684691,0.0,0.0
0.34768498,-0.0027242673,0.0010207727,0.0,0.0
0.45606473,0.014670481,-0.025683906,0.0,0.0
-0.43795162,-0.07159362,0.021616157,0.0,0.0
-0.22136804,-0.1259088,0.15924121,0.0,0.0
-0.29842427,0.04595059,-0.033071853,0.0,0.0
-0.35941243,0.025350377,-0.08294384,0.0,0.0
0.4198119,-0.13195881,-0.14151673,0.0,0.0
-0.2355066,0.06021152,-0.020375876,0.0,0.0
0.10458899,0.2217915,-0.10694121,0.0,0.0
-0.4374171,0.039818984,-0.058735337,0.0,0.0
0.42382362,-0.11256899,0.2635996,0.0,0.0
0.2520025,0.20004654,-0.09536678,0.0,0.0
0.4658659,-0.06847251,-0.15531544,0.0,0.0
0.31513786,-0.16320473,-0.123767465,0.0,0.0
0.48154408,-0.16235153,0.15269661,0.0,0.0
-0.6310637,-0.04092982,-0.10769288,0.0,0.0
-0.016082784,-0.18653522,0.077541865,0.0,0.0
-0.07736646,-0.20614135,0.09319404,0.0,0.0
-0.65821075,0.26260868,-0.023764478,0.0,0.0
-7.0738344e-05,-0.118372224,-0.16047582,0.0,0.0
0.21290232,0.28513423,-0.101703,0.0,0.0
0.4003438,0.06272973,-0.039468378,0.0,0.0
0.055855673,-0.21042211,0.03927935,0.0,0.0
0.14826907,-0.036742166,-0.1210938,0.0,0.0
-0.19909889,-0.14960352,0.22288083,0.0,0.0
0.6780974,0.0621983,-0.19547968,0.0,0.0
-0.33904022,-0.051717877,0.23106587,0.0,0.0
0.8468823,-0.080993,-0.047011957,0.0,0.0
-0.8242744,-0.07985131,-0.06691466,0.0,0.0
-0.34234387,0.0015044985,-0.113583155,0.0,0.0
0.5350758,-0.058540855,0.075038955,0.0,0.0
0.23644245,0.08049499,0.0004001723,0.0,0.0
-0.40810132,-0.18649878,0.19624628,0.0,0.0
0.16965571,-0.10408999,-0.06921544,0.0,0.0
-0.0547277,0.15589708,-0.0057105217,0.0,0.0
0.086177975,-0.15023175,0.14038518,0.0,0.0
0.60328376,-0.08657366,-0.14869937,0.0,0.0
-0.51254046,-0.04806756,-0.02198645,0.0,0.0
0.042646524,-0.002529402,0.05234018,0.0,0.0
-0.8842725,-0.05376145,-0.10274212,0.0,0.0
0.034985665,-0.1413916,0.048417576,0.0,0.0
0.2760408,-0.16262648,0.15805231,0.0,0.0
0.3812859,0.030471547,0.16750658,0.0,0.0
-0.2171914,0.12085034,-0.1385272,0.0,0.0
-0.12921439,0.025299838,-0.081796646,0.0,0.0
0.3061072,0.10952894,-0.13769554,0.0,0.0
0.11193618,0.08310932,-0.08796358,0.0,0.0
0.21019779,-0.12301596,0.10449052,0.0,0.0
-0.4566026,0.11490356,-0.07977033,0.0,0.0
-0.42261508,-0.08170614,-0.02074819,0.0,0.0
-0.5248362,-0.2379126,0.19342563,0.0,0.0
0.74374664,0.006146947,-0.07729267,0.0,0.0
-0.8783392,0.013007599,-0.066384755,0.0,0.0
0.43249467,-0.0755295,-0.14809307,0.0,0.0
-0.7106172,-0.04399702,-0.075671874,0.0,0.0
-0.26187584,0.03436605,-0.021571739,0.0,0.0
-0.25592178,-0.108487315,0.09224464,0.0,0.0
-0.30193448,-0.00908536,-0.12627633,0.0,0.0
0.6153073,0.14033264,0.31746235,0.0,0.0
-0.29961118,0.1060915,-0.077215,0.0,0.0
-0.6478502,-0.0472556,0.087133504,0.0,0.0
0.30802932,-0.002732296,0.10524197,0.0,0.0
0.18118577,0.43962175,-0.08275662,0.0,0.0
-0.2727835,0.03762717,0.044242706,0.0,0.0
0.23648787,-0.13558392,-0.048659995,0.0,0.0
0.6309993,-0.08472259,-0.075251445,0.0,0.0
0.533676,0.026578622,-0.044517502,0.0,0.0
-0.66902274,-0.1865624,-0.12486946,0.0,0.0
-0.5518773,-0.095680594,-0.129814,0.0,0.0
0.57685256,-0.19008465,0.048942037,0.0,0.0
0.6985402,0.47731075,-0.113622226,0.0,0.0
-0.17882155,-0.16680011,0.1864212,0.0,0.0
0.509779,0.02242665,-0.055513974,0.0,0.0
0.06154212,-0.11897333,0.060145922,0.0,0.0
0.38896465,-0.10778363,0.23499936,0.0,0.0
0.62361825,-0.23334247,0.20969747,0.0,0.0
-0.9036927,-0.07109763,-0.054720238,0.0,0.0
-0.28323182,-0.06473016,-0.0054447823,0.0,0.0
0.117520906,0.07264671,-0.08320143,0.0,0.0
-0.14998715,-0.038323842,-0.1542958,0.0,0.0
-0.39377746,0.20176204,-0.118221745,0.0,0.0
-0.5756149,-0.23568897,0.11348303,0.0,0.0
0.08425188,-0.0939865,0.18985967,0.0,0.0
0.3280507,0.0015485664,-0.02619202,0.0,0.0
-0.5274765,-0.18846454,0.22107734,0.0,0.0
0.20794177,0.12226923,-0.12530647,0.0,0.0
0.47948292,-0.19153984,0.24573795,0.0,0.0
0.6674038,-0.117196456,-0.08741402,0.0,0.0
0.65077794,0.07416392,-0.10539894,0.0,0.0
0.2806379,0.00019278994,0.033194676,0.0,0.0
-0.17432219,0.15233141,-0.03388085,0.0,0.0
0.15440436,-0.1096311,-0.23919652,0.0,0.0
0.34558386,0.00014837686,-0.16815874,0.0,0.0
-0.23673005,-0.04164202,0.28476807,0.0,0.0
0.4181968,-0.033716846,0.0031266042,0.0,0.0
-0.33089346,0.13904163,-0.03806361,0.0,0.0
-0.060553826,0.24200936,-0.056832906,0.0,0.0
0.03194252,0.025499718,0.10624712,0.0,0.0
-0.5756241,-0.08722471,-0.0016428444,0.0,0.0
-0.58474797,0.02595153,-0.036389757,0.0,0.0
0.43992293,-0.08428769,-0.001536059,0.0,0.0
0.24114296,-0.20145513,0.20778884,0.0,0.0
-0.32810277,-0.036289714,-0.012805879,0.0,0.0
0.24172448,0.02622754,0.02214709,0.0,0.0
0.27932918,-0.19457422,0.33143166,0.0,0.0
0.0025791437,0.13146852,-0.12452172,0.0,0.0
0.2878063,-0.17456712,0.24986552,0.0,0.0
-0.2604032,-0.17430383,0.09434128,0.0,0.0
-0.811724,-0.030753206,-0.07813788,0.0,0.0
0.55039907,0.006711482,-0.023451129,0.0,0.0
-0.2620282,0.1798093,-0.06884646,0.0,0.0
-0.37619734,-0.07022799,-0.00925006,0.0,0.0
0.048831172,-0.11055965,-0.15370092,0.0,0.0
-0.50582355,0.008031006,0.016296359,0.0,0.0
-0.24515998,0.033711582,-0.12888461,0.0,0.0
-0.6816428,-0.0847101,-0.03427196,0.0,0.0
-0.11888908,0.17684224,0.083864704,0.0,0.0
0.75086075,-0.15118006,-0.017784111,0.0,0.0
-0.7856836,-0.10283908,-0.06442683,0.0,0.0
0.13246599,-0.014328763,-0.07516951,0.0,0.0
0.2500132,0.16395397,-0.08407262,0.0,0.0
0.62769365,0.5564347,-0.013470613,0.0,0.0
-0.45516732,-0.17096247,0.1180223,0.0,0.0
-0.0959978,-0.064561844,-0.02413398,0.0,0.0
-0.56154156,-0.13042,0.1942718,0.0,0.0
-0.7536219,0.0025196248,-0.08441601,0.0,0.0
0.26795915,0.3765067,-0.08764785,0.0,0.0
-0.052773915,0.4222587,-0.04609687,0.0,0.0
-0.5044576,-0.09566804,0.10693332,0.0,0.0
-0.015050871,0.17767575,-0.071765624,0.0,0.0
-0.22291645,-0.056428924,0.064287655,0.0,0.0
0.69619316,-0.15333392,0.16051583,0.0,0.0
0.19452721,-0.14731115,-0.150054,0.0,0.0
0.21196586,-0.19687855,0.08003936,0.0,0.0
-0.5680366,0.121825315,-0.08045118,0.0,0.0
0.56625223,-0.29038352,0.17183088,0.0,0.0
-0.3581697,-0.2189476,0.014020961,0.0,0.0
-0.36449435,-0.08362335,0.028876089,0.0,0.0
0.15534712,0.00139956,-0.0519152,0.0,0.0
0.12244704,-0.096984796,0.1868403,0.0,0.0
-0.0514251,0.005796288,0.048242506,0.0,0.0
-0.30083227,-0.21709001,0.09195159,0.0,0.0
0.55055857,-0.15427472,-0.017753012,0.0,0.0
-0.31164008,-0.18313429,-0.027824972,0.0,0.0
0.26147702,0.2752578,-0.055459626,0.0,0.0
-0.19647993,-0.101072356,0.15397172,0.0,0.0
-0.28087065,-0.1694148,-0.016614271,0.0,0.0
0.31463784,0.20079796,-0.06003331,0.0,0.0
0.36418936,-0.021624807,0.019282468,0.0,0.0
-0.026846256,-0.20778267,0.29939994,0.0,0.0
0.2258313,-0.020069255,-0.0075119175,0.0,0.0
-0.041940387,-0.23750895,-0.13568161,0.0,0.0
0.46942917,-0.10599233,-0.1753133,0.0,0.0
0.10477596,-0.05101907,0.04641913,0.0,0.0
0.7229221,-0.22938153,-0.14992583,0.0,0.0
0.5564696,-0.13117284,-0.06134396,0.0,0.0
0.6884283,0.07257094,0.009976306,0.0,0.0
0.12328466,0.03788886,-0.06352584,0.0,0.0
0.1827131,0.042803675,-0.028890792,0.0,0.0
0.26878017,-0.12482064,0.2130854,0.0,0.0
0.64197594,-0.14586304,0.0053039673,0.0,0.0
0.3177072,0.010227791,-0.111535445,0.0,0.0
-0.24706732,-0.18806088,0.02647944,0.0,0.0
-0.16091701,-0.046656147,-0.0654823,0.0,0.0
0.25229153,0.013282052,0.028844211,0.0,0.0
0.8421876,-0.13251871,-0.10410021,0.0,0.0
-0.35727006,-0.1384992,0.11049306,0.0,0.0
0.0036605848,-0.19810759,0.10345152,0.0,0.0
0.6446784,0.025529496,0.12469784,0.0,0.0
-0.17509186,0.04755034,-0.0993861,0.0,0.0
-0.28336528,0.015709938,0.14071181,0.0,0.0
-0.5115859,-0.19321157,0.19587946,0.0,0.0
0.10496249,-0.15088527,-0.0058609596,0.0,0.0
0.5604747,-0.12141283,0.07359241,0.0,0.0
0.7122485,0.06438081,-0.0732497,0.0,0.0
0.25165343,-0.24440554,-0.05062698,0.0,0.0
-0.077306785,0.16667365,0.12420256,0.0,0.0
0.7068167,-0.04341289,-0.09326813,0.0,0.0
-0.79500246,0.0567785,-0.10794367,0.0,0.0
-0.8093931,-0.04516745,-0.00085269497,0.0,0.0
0.25078464,0.29210413,-0.04991332,0.0,0.0
-0.6500003,0.00027251616,0.00022806018,0.0,0.0
0.68064994,0.051302247,-0.1353819,0.0,0.0
-0.40887228,-0.13369976,-0.13847156,0.0,0.0
-0.31338876,-0.06689975,0.09151958,0.0,0.0
0.59391105,-0.018226396,-0.16637702,0.0,0.0
0.6899773,-0.21426827,0.17798324,0.0,0.0
0.16330233,-0.2486775,-0.0588131,0.0,0.0
-0.4199407,0.06777553,-0.08440112,0.0,0.0
-0.3132491,-0.20581636,0.1352728,0.0,0.0
-0.68121004,-0.0152204055,0.11747749,0.0,0.0
-0.13867684,-0.19200505,-0.12317961,0.0,0.0
-0.11879101,0.09921293,-0.073839985,0.0,0.0
0.7108965,-0.26887774,0.030259632,0.0,0.0
0.60216993,-0.12080732,-0.034542076,0.0,0.0
-0.15272263,-0.031809077,0.004963369,0.0,0.0
0.030776683,-0.06183665,0.104421034,0.0,0.0
-0.819409,0.08678528,-0.11759803,0.0,0.0
-0.5682087,-0.09053232,-0.11954865,0.0,0.0
-0.7511928,-0.254097,-0.13717261,0.0,0.0
0.29806444,-0.043505657,-0.0655899,0.0,0.0
-0.044966593,-0.0155922435,-0.090909824,0.0,0.0
-0.10531686,-0.13848606,0.07390736,0.0,0.0
-0.35405004,-0.04277749,-0.010220036,0.0,0.0
-0.8460472,0.0778664,-0.091987394,0.0,0.0
-0.036740318,0.17842503,-0.08005466,0.0,0.0
-0.21353446,-0.1966357,0.18469647,0.0,0.0
0.3319909,-0.033450805,0.1737947,0.0,0.0
-0.7164556,-0.0041562403,-0.0705747,0.0,0.0
-0.11063486,-0.08548751,-0.14874156,0.0,0.0
0.717959,0.16738768,-0.11588512,0.0,0.0
-0.51381373,-0.31466234,0.16504349,0.0,0.0
-0.41333485,0.12334921,0.10012707,0.0,0.0
-0.5909084,-0.16713755,0.03091289,0.0,0.0
-0.120625354,-0.16136171,0.03907695,0.0,0.0
0.15954712,0.13764304,-0.14165086,0.0,0.0
0.55068755,-0.23024955,-0.09060453,0.0,0.0
0.17913266,0.12242684,-0.13540314,0.0,0.0
0.085946694,0.054095402,-0.004822337,0.0,0.0
0.23155044,-0.12488037,-0.086297065,0.0,0.0
-0.1378702,0.21995227,-0.049112473,0.0,0.0
0.55120933,0.03232647,-0.014316364,0.0,0.0
0.100979604,-0.15784447,0.18939586,0.0,0.0
-0.8880738,0.12897646,-0.17903848,0.0,0.0
0.032577176,0.03194142,0.18939382,0.0,0.0
-0.121963575,0.12785065,-0.029821068,0.0,0.0
0.4302218,0.12706093,-0.10211256,0.0,0.0
0.14695388,-0.09293945,0.07133533,0.0,0.0
0.74110097,-0.22994715,-0.107063875,0.0,0.0
0.0921495,-0.06972837,-0.07483654,0.0,0.0
-0.57035315,0.31866565,0.019542355,0.0,0.0
0.7915241,0.09036478,-0.103135236,0.0,0.0
-0.6663792,0.06754344,-0.10731251,0.0,0.0
0.47354037,-0.22034426,-0.011109539,0.0,0.0
-0.08155017,0.13727964,-0.15386438,0.0,0.0
0.43941566,-0.13068558,-0.017515793,0.0,0.0
0.7292349,-0.13336365,0.21787417,0.0,0.0
-0.82760406,-0.094613604,0.14992945,0.0,0.0
0.62600327,-0.09553646,-0.078559704,0.0,0.0
0.012301329,-0.15562895,0.0044154646,0.0,0.0
-0.5864946,-0.19147126,0.036575817,0.0,0.0
0.12180254,0.06114176,-0.102527924,0.0,0.0
-0.8893632,0.040062327,-0.088518776,0.0,0.0
0.7712663,-0.11206239,-0.047398224,0.0,0.0
-0.14999734,-0.1375199,0.15177785,0.0,0.0
-0.07181614,-0.16416964,0.18211803,0.0,0.0
-0.72129023,0.30896667,-0.09190825,0.0,0.0
0.691794,0.5071342,0.053315382,0.0,0.0
0.08021964,-0.18449442,0.3140903,0.0,0.0
0.26817527,-0.1581438,0.012666754,0.0,0.0
0.15069641,-0.25422004,-0.07062722,0.0,0.0
0.20597847,0.013581382,-0.027369361,0.0,0.0
0.84034353,0.042333663,-0.038881633,0.0,0.0
0.61615014,-0.13264978,0.021679228,0.0,0.0
0.3169542,0.1871339,-0.018538738,0.0,0.0
-0.5349103,-0.029098697,0.14546889,0.0,0.0
0.5617896,-0.061111983,-0.108519934,0.0,0.0
0.6016304,-0.1139725,-0.094383635,0.0,0.0
0.50415057,-0.18860929,0.13180625,0.0,0.0
-0.6345924,-0.27183232,0.021338822,0.0,0.0
0.44903108,0.07945933,-0.11264928,0.0,0.0
0.4992269,0.26159433,-0.09457791,0.0,0.0
-0.39185828,-0.21126258,0.27831262,0.0,0.0
0.082910515,0.120080106,0.018530212,0.0,0.0
0.3529204,-0.38141093,0.12779965,0.0,0.0
-0.33820653,-0.030811854,-0.07467759,0.0,0.0
0.79537565,-0.02185184,-0.038280822,0.0,0.0
0.16024004,0.03598364,-0.052407168,0.0,0.0
0.34993586,-0.13501556,0.13478795,0.0,0.0
0.35281208,-0.09840937,0.035063088,0.0,0.0
0.7979639,0.18842311,-0.06802266,0.0,0.0
0.102645524,-0.037785683,0.13997672,0.0,0.0
-0.0596425,-0.31893906,0.15886752,0.0,0.0
0.48370343,-0.13414559,0.1167634,0.0,0.0
0.43418905,0.035811234,-0.115260914,0.0,0.0
-0.4450458,-0.15593375,0.15979692,0.0,0.0
-0.77184933,-0.20228401,-0.033968206,0.0,0.0
-0.24305788,-0.06960629,0.0843598,0.0,0.0
-0.19454795,-0.085344635,-0.07148209,0.0,0.0
0.5329784,-0.14497311,0.13633256,0.0,0.0
-0.17846693,0.33131415,-0.11081536,0.0,0.0
-0.38761634,0.11545263,-0.029585531,0.0,0.0
0.72614914,-0.07868353,-0.053175952,0.0,0.0
-0.08063188,-0.072711386,0.08007579,0.0,0.0
0.32353985,0.004493945,-0.054451864,0.0,0.0
-0.41237012,-0.2510839,-0.098668866,0.0,0.0
0.683158,-0.13697691,-0.013602324,0.0,0.0
0.75094086,-0.28327146,0.03652601,0.0,0.0
-0.5297576,-0.101377234,0.033214565,0.0,0.0
-0.051153608,-0.15719731,0.23697926,0.0,0.0
-0.46616396,0.09575533,-0.10200191,0.0,0.0
