x,y,z,f,scl1
0.7340244,0.1099393,-0.0530855,0.0,0.0
0.072308004,0.06208173,-0.1769376,0.0,0.0
0.028174913,0.12690273,-0.035155986,0.0,0.0
-0.51836,0.04616732,-0.09470929,0.0,0.0
0.40324035,-0.111520745,0.05779011,0.0,0.0
0.61741364,-0.10262498,-0.07636282,0.0,0.0
0.20576145,-0.10360006,0.037387274,0.0,0.0
0.34584194,-0.03993516,-0.15414852,0.0,0.0
0.27291858,-0.08365471,0.018685265,0.0,0.0
-0.20687151,-0.063823245,0.03851441,0.0,0.0
0.15611829,-0.22038372,0.30513573,0.0,0.0
-0.16236171,-0.023510508,-0.08729648,0.0,0.0
-0.42502287,0.08045335,-0.05393495,0.0,0.0
-0.82718575,-0.13104519,-0.008925593,0.0,0.0
0.6690522,-0.052824214,0.14031371,0.0,0.0
-0.18222827,-0.15383013,0.10161126,0.0,0.0
-0.048492417,-0.23096074,0.1643203,0.0,0.0
-0.78554505,-0.0048952335,-0.13362595,0.0,0.0
0.48546103,0.49051923,-0.064880274,0.0,0.0
0.58556014,0.16499281,-0.07696117,0.0,0.0
-0.16282722,0.055432864,-0.0592781,0.0,0.0
-0.0538832,0.06871336,-0.012011417,0.0,0.0
-0.3685906,0.08197664,-0.12084882,0.0,0.0
0.14428769,0.08208922,-0.12911353,0.0,0.0
0.6054127,-0.17361446,0.0396194,0.0,0.0
0.3559166,0.15674959,-0.048519988,0.0,0.0
-0.8054856,-0.17646877,-0.087432906,0.0,0.0
0.5614986,0.27837512,-0.1310689,0.0,0.0
-0.40557984,0.28794846,-0.076202534,0.0,0.0
0.4207889,0.3837222,0.0053951894,0.0,0.0
0.0804926,0.1671348,-0.13499539,0.0,0.0
0.191385,-0.07131708,-0.18978973,0.0,0.0
0.39412856,-0.112911135,-0.09072409,0.0,0.0
0.054361,0.059266232,-0.05819739,0.0,0.0
-0.067473106,-0.041661944,-0.010528315,0.0,0.0
0.5711748,-0.18980305,-0.06679541,0.0,0.0
0.0878689,-0.110339046,0.04769541,0.0,0.0
0.12642287,0.13603726,-0.113338366,0.0,0.0
0.7951909,-0.14139646,0.003988024,0.0,0.0
-0.9088798,0.025482599,-0.0940524,0.0,0.0
0.45033368,-0.0419192,0.00800037,0.0,0.0
-0.2817473,0.09689771,-0.10180672,0.0,0.0
-0.3036356,-0.1784304,0.26541921,0.0,0.0
-0.07627952,0.032059994,-0.05052553,0.0,0.0
0.58661854,0.074943,-0.068390645,0.0,0.0
0.00030352257,0.035664354,-0.16223758,0.0,0.0
0.78392315,-0.032641403,-0.0734326,0.0,0.0
0.37948447,-0.1628612,-0.08770203,0.0,0.0
0.58748895,-0.07827528,-0.07159645,0.0,0.0
-0.5359529,-0.1714244,0.115205266,0.0,0.0
0.10857221,0.043438464,-0.035620186,0.0,0.0
0.5868501,0.20060308,-0.10229067,0.0,0.0
0.14040773,-0.10253484,-0.013184764,0.0,0.0
-0.43237805,-0.22754136,0.2732727,0.0,0.0
-0.10375977,-0.075236484,0.0031955086,0.0,0.0
0.5513183,-0.06254142,0.028805872,0.0,0.0
0.6818274,-0.17250156,0.102730155,0.0,0.0
0.121992745,0.084400594,-0.09991058,0.0,0.0
0.42314872,-0.2290906,0.113048874,0.0,0.0
-0.17344481,-0.15636452,0.027994769,0.0,0.0
-0.14078918,-0.2951012,0.29605985,0.0,0.0
0.18557228,-0.19516876,0.3403861,0.0,0.0
0.4838928,-0.11279634,-0.10046595,0.0,0.0
0.58789384,-0.16487743,0.1568427,0.0,0.0
-0.53232294,-0.1655063,0.11403313,0.0,0.0
0.29179928,-0.008295705,-0.13638695,0.0,0.0
0.2447755,0.12701635,-0.1307439,0.0,0.0
0.10423112,0.27431014,-0.04196504,0.0,0.0
-0.22095305,0.14576127,-0.082825966,0.0,0.0
-0.091939054,-0.15816092,0.097461976,0.0,0.0
0.55809087,-0.20038879,-0.0073688985,0.0,0.0
0.7496455,-0.08161282,-0.07334436,0.0,0.0
-0.022178236,0.011101373,-0.1777509,0.0,0.0
0.44093198,-0.006373898,-0.17303061,0.0,0.0
0.03045641,-0.15780023,0.044967957,0.0,0.0
0.35977778,-0.07511491,-0.08399138,0.0,0.0
-0.025200315,-0.07458702,0.03841051,0.0,0.0
0.21182835,-0.21877962,0.19144565,0.0,0.0
-0.7944454,0.14444655,-0.12553999,0.0,0.0
0.7152847,-0.1580998,0.20535065,0.0,0.0
0.26625428,-0.100007415,0.054009486,0.0,0.0
0.32803604,0.10637025,-0.01857522,0.0,0.0
0.080906585,-0.061351363,0.12350847,0.0,0.0
-0.40252677,-0.14962621,-0.07843762,0.0,0.0
-0.76628745,-0.055007525,-0.058722556,0.0,0.0
-0.08848345,-0.20111623,0.12225725,0.0,0.0
0.461172,-0.34700227,0.3183858,0.0,0.0
-0.46950772,-0.1515093,0.16626514,0.0,0.0
-0.03688113,0.006098385,0.029853623,0.0,0.0
-0.66468334,0.13026705,-0.06107941,0.0,0.0
0.43047088,-0.06545768,0.11513363,0.0,0.0
0.29904434,0.0553301,-0.052565403,0.0,0.0
-0.23487723,0.2738859,-0.1378889,0.0,0.0
0.4755779,-0.18549664,0.17266284,0.0,0.0
-0.10792949,0.13833693,0.018193481,0.0,0.0
-0.1304703,0.19653197,0.012464827,0.0,0.0
-0.16149922,0.044651035,-0.099101335,0.0,0.0
0.35500255,0.08532282,-0.07863348,0.0,0.0
0.35858673,-0.031129247,-0.04891833,0.0,0.0
-0.10432106,-0.04069446,-0.0038066609,0.0,0.0
-0.34967297,-0.18809913,-0.046939466,0.0,0.0
0.32026014,-0.022938062,-0.023222966,0.0,0.0
-0.60610616,-0.1254675,0.07795198,0.0,0.0
0.37311283,0.3219569,0.08933062,0.0,0.0
-0.22536828,-0.0021608649,-0.06619966,0.0,0.0
-0.75248635,-0.2036738,-0.102313526,0.0,0.0
0.48382503,-0.24773951,0.2779606,0.0,0.0
-0.32871196,-0.11035648,-0.12818845,0.0,0.0
0.2806859,-0.136099,0.009900279,0.0,0.0
-0.2385164,0.06553392,-0.0052714106,0.0,0.0
0.47240075,0.02075332,0.00037693616,0.0,0.0
-0.32698897,-0.29952863,0.25390393,0.0,0.0
0.6975021,-0.114917025,0.07807475,0.0,0.0
0.10089049,0.14904878,-0.12398425,0.0,0.0
-0.2512902,-0.013442722,-0.030724838,0.0,0.0
0.066385984,0.06147912,-0.05411851,0.0,0.0
-0.48378,0.13118759,-0.01628435,0.0,0.0
0.6441151,-0.05765617,-0.110883996,0.0,0.0
-0.20215304,-0.033577103,0.013947401,0.0,0.0
-0.43025342,0.046230875,-0.16023758,0.0,0.0
-0.22583881,-0.011527492,-0.03212343,0.0,0.0
-0.38048223,-0.15348588,0.179674,0.0,0.0
0.4668033,-0.21767439,-0.012299935,0.0,0.0
-0.02152839,-0.16616666,0.2077821,0.0,0.0
0.35205594,-0.19984563,0.29367682,0.0,0.0
-0.5048983,-0.07987821,0.083122425,0.0,0.0
0.31911606,-0.17872563,0.23275355,0.0,0.0
0.36092064,-0.19334751,0.28958604,0.0,0.0
0.6920308,0.018988403,-0.17128906,0.0,0.0
-0.17939644,-0.03583717,-0.12667497,0.0,0.0
-0.5720456,0.29548395,-0.084537655,0.0,0.0
0.31923747,0.3164918,-0.04605061,0.0,0.0
0.8592647,-0.033587642,-0.10391629,0.0,0.0
0.08290126,-0.05215862,-0.13218464,0.0,0.0
-0.0032998482,-0.19041502,0.10107859,0.0,0.0
-0.73997605,-0.21464452,0.13675657,0.0,0.0
0.7240647,-0.17624907,-0.1493419,0.0,0.0
-0.8167792,0.05053033,-0.16612674,0.0,0.0
0.7118284,-0.2184321,0.21054256,0.0,0.0
-0.40898135,-0.1355077,-0.13634217,0.0,0.0
-0.27617097,-0.033161435,-0.09214825,0.0,0.0
-0.10896912,-0.18054393,0.2893173,0.0,0.0
-0.4098484,-0.06879115,-0.14145744,0.0,0.0
-0.48925617,-0.094055824,-0.05777635,0.0,0.0
0.308292,-0.09132914,-0.06027627,0.0,0.0
-0.5884949,-0.1288129,-0.10890758,0.0,0.0
-0.6836022,-0.007357218,-0.0986376,0.0,0.0
-0.37489498,0.31473124,-0.0871486,0.0,0.0
0.45479462,0.25927052,-0.0060536386,0.0,0.0
0.020997535,0.29556274,-0.10366761,0.0,0.0
0.34453517,0.073646404,-0.14401305,0.0,0.0
0.13348338,-0.22824892,-0.09278259,0.0,0.0
0.09074335,0.056004707,-0.02701099,0.0,0.0
0.045024514,0.08419767,-0.103407115,0.0,0.0
0.7332565,0.17250946,-0.110052645,0.0,0.0
-0.69659597,-0.1727871,0.09302039,0.0,0.0
-0.310976,-0.25272995,-0.029214596,0.0,0.0
-0.51228064,-0.22381371,0.010646615,0.0,0.0
0.31461397,-0.090729155,-0.07041402,0.0,0.0
0.5457421,0.03739545,-0.10906141,0.0,0.0
-0.61406505,-0.17815214,0.17579734,0.0,0.0
0.58780605,-0.08647287,-0.09234104,0.0,0.0
-0.162427,0.0937344,-0.08870082,0.0,0.0
-0.7691387,0.06846357,0.23699765,0.0,0.0
0.551064,0.16212508,-0.084800616,0.0,0.0
0.34456614,-0.004828007,0.008505806,0.0,0.0
0.36648855,-0.10472772,0.19551586,0.0,0.0
-0.055693436,-0.062494643,0.03936955,0.0,0.0
-0.112196356,-0.10582037,-0.060505725,0.0,0.0
0.55776525,-0.044843122,-0.12558675,0.0,0.0
-0.6861096,-0.14104511,0.045405842,0.0,0.0
0.36640483,-0.007311896,-0.0007565354,0.0,0.0
0.5746514,0.35715565,-0.09264651,0.0,0.0
-0.455071,-0.14895618,0.10039779,0.0,0.0
-0.41806203,0.12881859,-0.05441135,0.0,0.0
0.22918016,-0.031551514,-0.22435975,0.0,0.0
-0.5119901,-0.05419383,-0.09432388,0.0,0.0
-0.36216983,-0.17431626,-0.03520606,0.0,0.0
0.07963288,-0.18016802,-0.07121435,0.0,0.0
0.08238241,-0.17073081,-0.16727787,0.0,0.0
-0.19540098,0.018792601,-0.08021708,0.0,0.0
-0.40146947,-0.2220515,0.23775865,0.0,0.0
0.05961384,-0.009223883,-0.038079638,0.0,0.0
-0.3875898,-0.1985767,-0.16521028,0.0,0.0
0.7814278,0.09769808,-0.10553248,0.0,0.0
-0.11286902,0.005228322,0.028236568,0.0,0.0
0.45864323,0.031240586,-0.14330049,0.0,0.0
-0.54173166,-0.007813565,0.011592542,0.0,0.0
0.5903917,-0.021918835,-0.09573061,0.0,0.0
0.30955106,-0.21525605,-0.020855185,0.0,0.0
0.52862114,0.4090166,0.13513936,0.0,0.0
-0.01339381,0.10180719,-0.02904675,0.0,0.0
0.35026658,-0.03314207,-0.08848113,0.0,0.0
0.20096429,-0.20249267,0.08581608,0.0,0.0
0.46832034,-0.36258864,-0.12124253,0.0,0.0
0.50896364,-0.18895464,0.03201754,0.0,0.0
-0.6728176,-0.1439825,0.0697441,0.0,0.0
-0.7172845,-0.017302196,-0.028643113,0.0,0.0
-0.1736191,0.022193555,-0.11402696,0.0,0.0
0.38137487,-0.044296693,-0.114154585,0.0,0.0
-0.22517543,0.15043437,-0.18283387,0.0,0.0
-0.1627708,-0.06925241,-0.016485412,0.0,0.0
0.041353986,-0.11734096,-0.15682754,0.0,0.0
-0.07123477,0.06305634,0.032677546,0.0,0.0
-0.50887007,-0.008979651,-0.116389,0.0,0.0
0.7992832,-0.059361093,-0.041543752,0.0,0.0
0.11004612,0.0917371,-0.09249447,0.0,0.0
0.5950543,-0.11862921,0.13725455,0.0,0.0
0.16353735,0.26205713,-0.054296266,0.0,0.0
-0.33678412,-0.25122032,0.13235907,0.0,0.0
0.70990443,-0.08917365,-0.13275172,0.0,0.0
-0.5160959,0.049170878,-0.022510272,0.0,0.0
-0.97019297,0.21846008,-0.056695282,0.0,0.0
0.37729248,-0.05223627,0.053302314,0.0,0.0
-0.31035054,-0.025558725,-0.12359269,0.0,0.0
0.05667564,0.13920222,-0.07613021,0.0,0.0
0.5948087,-0.10960203,-0.17015797,0.0,0.0
-0.12789202,-0.13095194,0.21949273,0.0,0.0
-0.79919904,-0.078958936,-0.131682,0.0,0.0
-0.24615934,-0.117490456,-0.026689563,0.0,0.0
-0.042075105,-0.09593531,0.0077697164,0.0,0.0
0.5341605,-0.10140529,0.0020780945,0.0,0.0
0.4163239,-0.24696952,-0.03408006,0.0,0.0
-0.59812796,0.04423028,-0.0021602025,0.0,0.0
-0.8164433,-0.13323309,-0.07958248,0.0,0.0
0.444908,0.052006267,-0.018870033,0.0,0.0
0.20192847,-0.13314913,-0.16185147,0.0,0.0
-0.22571659,0.15044938,-0.09686438,0.0,0.0
-0.6118163,-0.100970566,0.044946745,0.0,0.0
-0.38904238,-0.1797911,0.0133352745,0.0,0.0
-0.72433335,-0.13186309,0.045393664,0.0,0.0
-0.5080482,-0.0007673442,-0.15225266,0.0,0.0
0.16580014,-0.20188417,-0.0036552628,0.0,0.0
-0.2503315,-0.19719556,0.24677947,0.0,0.0
0.6260067,0.032971468,-0.0014701262,0.0,0.0
0.15438819,-0.123102814,0.004771112,0.0,0.0
-0.37995487,-0.10420024,0.016157959,0.0,0.0
0.09741122,-0.02073475,-0.07566325,0.0,0.0
-0.15348567,0.18561414,-0.09322979,0.0,0.0
-0.4806776,0.029203676,-0.10697189,0.0,0.0
-0.022078127,-0.0140001,0.0009588244,0.0,0.0
-0.010639008,-0.10547191,0.063534334,0.0,0.0
0.7367762,0.26095247,-0.12243013,0.0,0.0
-0.5960869,-0.023640312,-0.073018275,0.0,0.0
0.6913052,-0.20026189,0.019475222,0.0,0.0
-0.16046245,-0.08848296,-0.037559826,0.0,0.0
0.16405314,0.24256256,-0.10520646,0.0,0.0
-0.5430113,-0.09198522,0.084361225,0.0,0.0
-0.73804307,-0.05631762,-0.02483372,0.0,0.0
-0.7591718,-0.048126753,0.07329034,0.0,0.0
-0.6687619,-0.1510056,0.25565755,0.0,0.0
-0.11839353,-0.0463504,0.00920144,0.0,0.0
0.6017928,-0.016697085,0.07328607,0.0,0.0
-0.80941135,-0.06550858,-0.04572511,0.0,0.0
-0.8967983,0.03614182,-0.08321349,0.0,0.0
0.43341032,0.3296425,-0.040947124,0.0,0.0
-0.7017957,-0.1693027,0.12033771,0.0,0.0
-0.23419584,-0.0796533,0.11191054,0.0,0.0
0.20265013,-0.2395944,0.066020064,0.0,0.0
0.72985494,-0.18034133,-0.09948779,0.0,0.0
0.5008506,0.20402949,-0.11076313,0.0,0.0
0.75401586,-0.14512578,0.07079026,0.0,0.0
-0.082109384,-0.28056782,0.11664242,0.0,0.0
-0.21307912,0.30745703,-0.062498644,0.0,0.0
0.18824583,0.05997035,-0.06364844,0.0,0.0
0.5119594,-0.17163332,-0.104220144,0.0,0.0
-0.10613921,0.052251175,-0.15298516,0.0,0.0
0.33341187,-0.07798504,0.14601393,0.0,0.0
0.40106964,0.40085873,-0.13848083,0.0,0.0
-0.62737954,-0.055235025,-0.1148529,0.0,0.0
-0.33574098,-0.23944886,-0.104226254,0.0,0.0
0.5569465,0.24748264,-0.0844438,0.0,0.0
0.14425248,-0.14663921,-0.0006637693,0.0,0.0
-0.38702658,0.3799282,-0.062294573,0.0,0.0
0.549185,0.19989328,-0.052597728,0.0,0.0
-0.1631022,0.09057186,-0.12305411,0.0,0.0
0.2951903,0.12814698,-0.064644225,0.0,0.0
0.5181608,0.09434823,-0.00810861,0.0,0.0
-0.12267235,-0.17029132,0.10422663,0.0,0.0
-0.12572204,-0.20595668,0.120879814,0.0,0.0
0.039662078,0.01025231,0.04980594,0.0,0.0
-0.13146488,0.2332108,-0.1284589,0.0,0.0
-0.13964139,0.1613195,0.06495191,0.0,0.0
-0.30801153,-0.09960992,-0.099083394,0.0,0.0
0.69759744,0.28800958,-0.06618407,0.0,0.0
-0.23617367,-0.06870765,0.10807742,0.0,0.0
0.015727554,-0.10216815,0.06730595,0.0,0.0
-0.0031196983,0.052285597,0.03833556,0.0,0.0
0.08144307,-0.15364437,-0.019220896,0.0,0.0
0.67814916,-0.25436866,0.14307864,0.0,0.0
0.33595178,-0.02527241,0.11791914,0.0,0.0
0.08771445,0.13156344,-0.12104983,0.0,0.0
-0.70617545,0.010726683,-0.043750826,0.0,0.0
-0.72895443,0.047829162,-0.083780736,0.0,0.0
0.06611861,-0.023966165,-0.15807894,0.0,0.0
0.17188747,0.21398444,-0.09788894,0.0,0.0
-0.33573034,0.04817956,-0.12629059,0.0,0.0
0.6612308,0.020339562,-0.024748249,0.0,0.0
0.12388425,0.2222744,-0.1550569,0.0,0.0
0.25217906,-0.0058000404,-0.16631752,0.0,0.0
0.11252728,0.0862169,-0.08401846,0.0,0.0
-0.65236634,-0.17231904,0.12383295,0.0,0.0
-0.47599927,0.0019953996,0.20158163,0.0,0.0
-0.7510564,-0.086940035,-0.07637556,0.0,0.0
0.7360038,0.20116417,-0.14492299,0.0,0.0
0.7789705,-0.004967033,-0.094757244,0.0,0.0
0.019875078,-0.004181873,-0.06524503,0.0,0.0
-0.5802314,-0.2189658,0.14300908,0.0,0.0
-0.10570365,0.11849671,-0.1119593,0.0,0.0
0.21797983,0.13231102,-0.055369254,0.0,0.0
-0.3567626,-0.2704729,0.12729488,0.0,0.0
0.017030561,-0.29110917,0.10309166,0.0,0.0
0.066620834,-0.08400181,0.106450506,0.0,0.0
0.3061956,-0.09564657,-0.1657685,0.0,0.0
-0.18207842,0.25282657,-0.0676025,0.0,0.0
-0.8623722,-0.106234685,0.11760436,0.0,0.0
0.39767554,-0.121093415,-0.008616103,0.0,0.0
-0.27639306,-0.10594958,-0.035230655,0.0,0.0
1.1212623,0.050134204,-0.19708696,0.0,0.0
0.4548456,-0.030714644,0.048662484,0.0,0.0
-0.7608495,-0.10005702,0.0013321684,0.0,0.0
-0.8193433,-0.11414835,-0.015593726,0.0,0.0
-0.076609604,-0.027684728,0.14135109,0.0,0.0
0.35825577,-0.13851121,0.24031709,0.0,0.0
0.5449883,0.09119748,-0.14536503,0.0,0.0
-0.4844427,0.0627667,-0.07545893,0.0,0.0
-0.29931945,-0.20614906,0.1771986,0.0,0.0
0.7652438,-0.220541,-0.077878185,0.0,0.0
-0.5217374,-0.12293799,0.011819707,0.0,0.0
-0.56995165,-0.20866048,0.079838306,0.0,0.0
-0.19103706,-0.10609612,0.082371034,0.0,0.0
-0.14797254,-0.045324065,-0.0009041424,0.0,0.0
-0.549252,-0.049097557,-0.05834442,0.0,0.0
-0.48680675,0.27277848,-0.07700197,0.0,0.0
0.07803578,-0.0046565477,-0.08238404,0.0,0.0
0.5214579,-0.22622098,0.028281206,0.0,0.0
-0.19963208,-0.2516094,0.059064604,0.0,0.0
-0.6504283,-0.10029929,-0.026756693,0.0,0.0
0.3508094,0.30438587,-0.1224516,0.0,0.0
0.0605546,-0.15972605,-0.03682152,0.0,0.0
0.5844545,0.20582926,-0.108879946,0.0,0.0
-0.53548735,-0.15741059,0.039783962,0.0,0.0
0.0215626,-0.17124334,0.10801681,0.0,0.0
0.21320832,-0.13235843,0.09985057,0.0,0.0
-0.51605093,-0.069277026,-0.0048014685,0.0,0.0
-0.076465115,0.11574253,0.013824498,0.0,0.0
0.19115056,-0.13743615,0.22723293,0.0,0.0
-0.5263641,-0.13941513,0.13577622,0.0,0.0
0.10376585,-0.22001852,-0.0288831,0.0,0.0
-0.47811425,-0.034834582,-0.08791767,0.0,0.0
0.006211359,0.08892702,-0.12720077,0.0,0.0
0.58866364,-0.10850823,0.079491176,0.0,0.0
-0.6598872,-0.15915762,0.090736695,0.0,0.0
-0.3198779,-0.10631967,-0.040403225,0.0,0.0
0.12366868,-0.15454385,0.049845643,0.0,0.0
0.62607145,0.08317945,-0.07515141,0.0,0.0
-0.096428774,0.02398897,-0.13566408,0.0,0.0
-0.08266166,-0.19838336,-0.06397132,0.0,0.0
0.2969171,-0.17183813,0.10228905,0.0,0.0
-0.4788567,0.124361545,0.042776674,0.0,0.0
-0.021133356,-0.23618942,0.1983017,0.0,0.0
0.4689084,-0.09049822,0.021431502,0.0,0.0
0.0014761377,-0.2608351,0.20029289,0.0,0.0
-0.27958336,0.015142979,-0.067204975,0.0,0.0
-0.34121805,-0.21191661,0.16556571,0.0,0.0
0.08938099,0.12311406,-0.11051268,0.0,0.0
-0.44951457,-0.008305302,0.069492996,0.0,0.0
0.11213876,-0.16559184,0.11087444,0.0,0.0
0.0428546,-0.17492868,0.01768634,0.0,0.0
-0.76485574,-0.04641715,-0.13535587,0.0,0.0
-0.433095,-0.18959127,0.07094466,0.0,0.0
0.4159457,-0.23173064,-0.07991977,0.0,0.0
0.2270369,0.04376716,-0.102884576,0.0,0.0
-0.4219314,-0.16765048,0.22176771,0.0,0.0
0.21595141,0.07288162,-0.13805366,0.0,0.0
-0.40452543,0.14623407,-0.116321824,0.0,0.0
-0.5204188,-0.18378639,-0.09283811,0.0,0.0
0.087411106,-0.16864164,-0.03795151,0.0,0.0
-0.163477,0.3320018,-0.11171203,0.0,0.0
-0.6773809,-0.17905985,0.15338024,0.0,0.0
0.20251337,-0.037683625,0.13630985,0.0,0.0
-0.1148553,0.003581795,-0.03117307,0.0,0.0
0.62325037,-0.16009666,0.16727403,0.0,0.0
0.5156531,-0.10143563,0.22995764,0.0,0.0
-0.7277003,-0.041784815,-0.103651136,0.0,0.0
0.5445019,-0.057482008,-0.1203332,0.0,0.0
-0.5473989,-0.16127814,0.05266401,0.0,0.0
-0.4269291,-0.0003143046,0.039048187,0.0,0.0
-0.81645006,0.18027237,-0.098952755,0.0,0.0
-0.56455034,-0.06607435,-0.07455787,0.0,0.0
-0.43999928,-0.088238224,0.021981947,0.0,0.0
0.36224344,-0.17096658,-0.11700601,0.0,0.0
-0.7739774,-0.09319729,-0.06701226,0.0,0.0
0.2566367,0.2187005,-0.12918343,0.0,0.0
0.4347718,-0.034616143,-0.23204598,0.0,0.0
0.07613429,0.15870477,-0.13650246,0.0,0.0
0.174197,-0.013083221,0.0076722433,0.0,0.0
-0.30235514,0.12357402,-0.03258797,0.0,0.0
0.3705767,0.24108909,-0.046589438,0.0,0.0
-0.7944454,-0.13151978,-0.0014379559,0.0,0.0
0.4804288,0.0128661,-0.16751865,0.0,0.0
0.34090635,0.09736442,-0.09235283,0.0,0.0
0.014477518,-0.23122814,0.1650477,0.0,0.0
0.18694429,-0.15498747,-0.053119477,0.0,0.0
0.13753004,-0.18803081,0.11511267,0.0,0.0
-0.76279944,-0.08291947,-0.13158067,0.0,0.0
-0.2124259,-0.1340039,0.060915694,0.0,0.0
0.20898661,0.033550736,0.034178678,0.0,0.0
0.48954165,0.098375216,-0.10322418,0.0,0.0
0.1654302,-0.2620939,0.35923263,0.0,0.0
0.028986802,0.00840323,-0.07319665,0.0,0.0
-0.011093623,-0.1907126,0.030377993,0.0,0.0
-0.389887,0.17368478,-0.06726515,0.0,0.0
-0.33978933,-0.21804969,0.22481155,0.0,0.0
-0.024668377,-0.11485015,-0.11191982,0.0,0.0
-0.5993344,-0.23787937,0.08701669,0.0,0.0
0.74033743,-0.1967176,0.08413715,0.0,0.0
0.81690776,0.49952897,-0.027139254,0.0,0.0
-0.18310022,0.094077565,-0.04262196,0.0,0.0
0.31574273,-0.2746838,0.290191,0.0,0.0
-0.008933404,-0.1486854,0.19242659,0.0,0.0
-0.34410578,0.38631225,0.11792513,0.0,0.0
0.5309288,-0.13691276,0.047393337,0.0,0.0
0.60344,0.23763686,-0.037237264,0.0,0.0
-0.30651674,-0.10015229,0.11750006,0.0,0.0
0.7283794,-0.1334869,0.15296657,0.0,0.0
0.12252733,-0.18604733,0.110624865,0.0,0.0
0.19965099,-0.04297217,0.061637346,0.0,0.0
0.35389844,0.0178622,0.006992119,0.0,0.0
0.4188565,-0.1556472,-0.04709608,0.0,0.0
0.1749986,-0.22138736,0.22027867,0.0,0.0
-0.82796276,0.043425962,-0.07501429,0.0,0.0
-0.009716797,-0.031588893,0.10107491,0.0,0.0
-0.36643735,-0.19766358,0.1260285,0.0,0.0
-0.09139469,-0.14776686,0.09276258,0.0,0.0
0.16814327,0.12757887,-0.06691234,0.0,0.0
-0.6247839,-0.00609608,0.044696514,0.0,0.0
0.17104979,0.0058562118,-0.0033237946,0.0,0.0
0.1838348,-0.11271659,0.12620455,0.0,0.0
-0.23350617,0.15887117,-0.10047895,0.0,0.0
0.10184413,-0.21127585,0.2054003,0.0,0.0
-0.021908335,-0.19934621,0.19335246,0.0,0.0
-0.72671074,0.23332614,-0.024643714,0.0,0.0
-0.33415067,0.29955262,-0.09532398,0.0,0.0
-0.44178694,-0.19121617,-0.07619543,0.0,0.0
0.24825113,-0.14210387,-0.024091322,0.0,0.0
-0.5302391,0.031871404,0.0050164405,0.0,0.0
-0.87036425,0.103659905,-0.09870367,0.0,0.0
-0.4045745,-0.06989132,0.13365053,0.0,0.0
0.49142593,-0.17473635,0.2545301,0.0,0.0
-0.8077308,-0.15335071,-0.044604212,0.0,0.0
-0.4017657,-0.12740262,0.084271364,0.0,0.0
-0.09594554,0.13808253,-0.18462247,0.0,0.0
0.062437605,-0.2363116,0.097372025,0.0,0.0
0.41529146,0.039556358,-0.18116173,0.0,0.0
0.18984245,-0.1846739,0.27368698,0.0,0.0
-0.76485306,0.057072755,-0.09228028,0.0,0.0
0.48984474,0.24881037,-0.054775767,0.0,0.0
-0.24450411,-0.058184404,0.0405518,0.0,0.0
-0.26775888,-0.21823312,0.008510644,0.0,0.0
-0.25739294,-0.25531718,0.06747269,0.0,0.0
-0.36043712,-0.026210502,0.018950496,0.0,0.0
0.56756586,-0.23244974,0.029006403,0.0,0.0
0.28891134,0.014392396,0.21487142,0.0,0.0
0.123074055,-0.13396691,0.14210568,0.0,0.0
-0.17860936,0.027035002,0.059988353,0.0,0.0
-0.7313822,-0.18519601,0.14129497,0.0,0.0
-0.26844853,0.15724792,-0.08723162,0.0,0.0
-0.578068,0.008733653,0.14872484,0.0,0.0
0.28039053,-0.18641157,0.08132555,0.0,0.0
0.1992914,0.017066035,0.037191425,0.0,0.0
0.14509192,0.133481,-0.086779416,0.0,0.0
0.18059544,-0.20817012,0.013469692,0.0,0.0
0.14539571,-0.028059434,0.095385686,0.0,0.0
-0.13417582,-0.16827929,0.09920693,0.0,0.0
0.39301977,-0.22897518,0.17572668,0.0,0.0
-0.17731759,-0.18318091,-0.11339394,0.0,0.0
-0.022119533,-0.14202301,-0.107015185,0.0,0.0
-0.7283116,-0.14233074,0.019903284,0.0,0.0
-0.19656071,-0.22463718,0.18651941,0.0,0.0
0.20947151,-0.11800406,0.19687885,0.0,0.0
-0.12238462,-0.17381756,0.25840932,0.0,0.0
0.20051834,-0.12716113,0.1000794,0.0,0.0
0.12621737,0.017450545,-0.1248414,0.0,0.0
0.6057328,-0.12883933,-0.23048264,0.0,0.0
-0.001328303,-0.102353536,0.10180227,0.0,0.0
0.48759308,-0.18488383,0.120981954,0.0,0.0
0.7862853,0.4551849,-0.21964946,0.0,0.0
0.3243618,0.117855385,-0.13675965,0.0,0.0
-0.6421685,0.12387431,-0.0927081,0.0,0.0
0.8609035,-0.20930944,-0.049036093,0.0,0.0
0.19641012,-0.06292584,-0.03360878,0.0,0.0
-0.5797497,-0.17458595,-0.08087252,0.0,0.0
0.031192936,0.053111494,-0.06688705,0.0,0.0
0.00012271188,0.23919037,-0.13631588,0.0,0.0
-0.16099006,0.18560366,-0.137078,0.0,0.0
-1.0271264,0.0920513,0.010201868,0.0,0.0
-0.35478196,0.14120394,-0.11126788,0.0,0.0
-0.058688056,0.08826566,0.021999009,0.0,0.0
0.29990214,-0.112013906,-0.049707815,0.0,0.0
0.6059189,-0.16857252,-0.045205332,0.0,0.0
0.18528952,-0.1317341,-0.035724953,0.0,0.0
0.0010004465,-0.16052304,0.17194045,0.0,0.0
0.06781139,0.1645034,-0.13074031,0.0,0.0
-0.4839021,-0.0357659,-0.12429,0.0,0.0
0.47377986,0.099332236,-0.006581699,0.0,0.0
-0.08892295,0.13202201,0.025999676,0.0,0.0
0.4252824,0.093111604,-0.06264145,0.0,0.0
0.5509034,0.42876425,-0.029105501,0.0,0.0
0.031838186,-0.16083571,-0.05259035,0.0,0.0
0.14126901,-0.023195967,0.065469354,0.0,0.0
-0.82127005,-0.055106446,-0.041564513,0.0,0.0
-0.13405597,-0.19858351,0.16293342,0.0,0.0
0.03558823,0.023965161,-0.036675476,0.0,0.0
0.18195203,-0.04745707,0.098630115,0.0,0.0
0.0703517,-0.19268927,0.18697238,0.0,0.0
-0.06598105,0.04344815,-0.14666781,0.0,0.0
-0.18291236,0.032823756,-0.13296096,0.0,0.0
-0.0052401726,-0.07928756,-0.007877792,0.0,0.0
0.006554549,-0.19426705,0.24455036,0.0,0.0
0.33708942,0.22638398,-0.12743543,0.0,0.0
0.31102502,0.061954282,-0.13374373,0.0,0.0
0.4343387,-0.11043569,0.2147754,0.0,0.0
-0.55250376,-0.103977434,-0.120226614,0.0,0.0
0.30110836,-0.15035489,-0.035585534,0.0,0.0
0.69135946,-0.13651142,-0.01061231,0.0,0.0
-0.85549897,-0.037041273,-0.100437775,0.0,0.0
0.37347233,-0.11707819,0.09082101,0.0,0.0
0.2867437,-0.17837514,0.024722224,0.0,0.0
0.637975,-0.13535236,0.2734804,0.0,0.0
0.14821753,-0.23883018,0.10169405,0.0,0.0
-0.12510198,-0.22073784,0.12626572,0.0,0.0
-0.020085733,-0.17721638,0.1880197,0.0,0.0
-0.12669075,-0.08019669,0.03363176,0.0,0.0
0.3327587,-0.2369576,-0.06157104,0.0,0.0
0.4237023,0.20987871,-0.042339753,0.0,0.0
0.0210484,-0.020853726,-0.11209317,0.0,0.0
-0.59432745,-0.03506294,-0.0021932258,0.0,0.0
0.40645605,0.0026546419,0.00750811,0.0,0.0
-0.5712348,-0.062814265,0.065370835,0.0,0.0
-0.6900242,0.05777206,-0.14686179,0.0,0.0
-0.28016797,-0.08542964,0.12321235,0.0,0.0
-0.0035905477,0.126835,-0.12806681,0.0,0.0
0.256136,0.1097433,-0.10201853,0.0,0.0
-0.16708115,-0.03949106,0.10238013,0.0,0.0
-0.007798377,0.18458803,-0.11368898,0.0,0.0
-0.73132044,0.014498526,-0.0797275,0.0,0.0
-0.029909346,0.0073838523,-0.078173734,0.0,0.0
0.030923909,-0.20559761,-0.08188867,0.0,0.0
-0.23435149,-0.28224683,0.2515485,0.0,0.0
-0.36007634,-0.031994496,0.08748027,0.0,0.0
0.3107818,-0.22090808,0.1543014,0.0,0.0
-0.1996672,0.03081425,0.048305497,0.0,0.0
0.060007066,0.21650043,0.0048591075,0.0,0.0
-0.38225883,0.056353442,-0.14745648,0.0,0.0
0.32620052,-0.08471159,0.20748608,0.0,0.0
0.77709275,0.14940798,-0.12308066,0.0,0.0
-0.5959214,-0.180314,-0.079976,0.0,0.0
-0.47308126,-0.0088994615,-0.08430682,0.0,0.0
-0.3250956,0.06149948,0.00921999,0.0,0.0
0.07700005,0.15948467,0.008659035,0.0,0.0
0.8681501,0.20231292,-0.092129014,0.0,0.0
0.26042336,-0.1332589,0.20937073,0.0,0.0
0.6476391,-0.15524101,0.14727214,0.0,0.0
-0.3448727,0.011596447,-0.011742072,0.0,0.0
-0.24423432,-0.0904969,-0.11444882,0.0,0.0
0.31521228,-0.17738876,0.008408736,0.0,0.0
-0.5725561,-0.27844238,0.1330751,0.0,0.0
-0.031740084,-0.22716795,0.030544026,0.0,0.0
-0.054639045,-0.084397785,-0.013621247,0.0,0.0
0.44917998,-0.090452604,0.12225116,0.0,0.0
0.11000323,0.0237467,-0.12439119,0.0,0.0
0.048429016,0.11465174,-0.028476642,0.0,0.0
-0.4750827,-0.08559382,-0.02272049,0.0,0.0
0.50015116,-0.00035837712,0.064974695,0.0,0.0
0.6408441,0.31720105,0.12873313,0.0,0.0
-0.6577595,0.11077224,0.034337234,0.0,0.0
-0.6935427,0.027368618,-0.062347434,0.0,0.0
-0.12044359,0.13570672,0.08880896,0.0,0.0
-0.001069109,-0.11950776,0.023843836,0.0,0.0
-0.764518,-0.17088711,-0.05540207,0.0,0.0
0.48433688,-0.30058986,0.04396997,0.0,0.0
-0.18342306,-0.05693552,0.123734124,0.0,0.0
-0.49924678,0.15344553,0.0576626,0.0,0.0
0.08973836,-0.21531312,-0.045684814,0.0,0.0
-0.35748616,-0.16656299,-0.119091615,0.0,0.0
-0.28376105,-0.28013742,0.21943773,0.0,0.0
-0.5537622,-0.06016428,-0.068035,0.0,0.0
-0.72523415,-0.23682322,-0.01703109,0.0,0.0
0.77813125,0.2607757,-0.1292938,0.0,0.0
-0.31919345,-0.11090166,0.14300743,0.0,0.0
-0.0034760535,0.027562907,-0.061348446,0.0,0.0
-0.8429587,-0.07000389,0.031230576,0.0,0.0
0.24808314,-0.01659023,0.10140504,0.0,0.0
-0.2878834,-0.14141807,-0.07515837,0.0,0.0
0.5880881,-0.1742074,-0.0050085336,0.0,0.0
-0.30420858,0.14751206,-0.11653386,0.0,0.0
-0.40850374,0.10448269,-0.09988167,0.0,0.0
-0.2832561,0.0025548982,-0.005794844,0.0,0.0
0.43850735,0.21416864,-0.08892712,0.0,0.0
-0.8594712,0.06521347,-0.11305999,0.0,0.0
-0.51368654,-0.13807076,0.17037515,0.0,0.0
-0.22586761,-0.016618982,0.054162122,0.0,0.0
-0.26841384,0.24784698,-0.11062658,0.0,0.0
-0.07935318,0.15380794,-0.079752766,0.0,0.0
0.23409824,-0.0016443356,0.008004582,0.0,0.0
0.41681147,-0.07361731,-0.048218306,0.0,0.0
0.59114045,-0.24839278,0.059480384,0.0,0.0
0.59546524,-0.20512049,0.4495464,0.0,0.0
0.40646687,-0.4474595,0.54399055,0.0,0.0
-0.1924652,-0.13255946,0.21799251,0.0,0.0
-0.6257671,0.34663966,-0.117436826,0.0,0.0
0.55109817,0.059606142,-0.13018459,0.0,0.0
0.34886703,-0.2045516,0.0030070408,0.0,0.0
0.6509805,0.122988835,-0.050478503,0.0,0.0
0.28371644,-0.14299904,-0.16220745,0.0,0.0
-0.37514278,0.07014911,-0.06988183,0.0,0.0
-0.4952925,-0.14884181,-0.08068544,0.0,0.0
-0.29904526,0.32110864,0.069080755,0.0,0.0
-0.43251097,-0.09966476,0.019620776,0.0,0.0
0.044085514,-0.0057512885,0.09221509,0.0,0.0
-0.1650402,0.13793914,0.03902191,0.0,0.0
0.67293173,-0.003093557,-0.15856025,0.0,0.0
-0.14166862,-0.1529266,0.13509673,0.0,0.0
-0.55032957,-0.04644732,-0.13080011,0.0,0.0
0.059338596,0.071855165,-0.15301359,0.0,0.0
-0.1571019,-0.11230572,0.017097209,0.0,0.0
0.59192103,-0.23623975,0.07537445,0.0,0.0
0.028286412,-0.07860796,-0.043685123,0.0,0.0
-0.34092045,0.15881121,-0.11911897,0.0,0.0
-0.06908345,-0.16078256,0.1891277,0.0,0.0
-0.22996627,-0.21527448,0.0035528282,0.0,0.0
-0.08224518,-0.1764519,0.034970332,0.0,0.0
0.53969485,0.3346253,-0.05603212,0.0,0.0
0.20201175,-0.091367245,0.15499888,0.0,0.0
-0.5982506,-0.058114853,-0.041476853,0.0,0.0
0.25637004,0.22730191,0.12566979,0.0,0.0
0.4354548,-0.20228209,-0.038692385,0.0,0.0
-0.5578434,-0.047156796,-0.054551862,0.0,0.0
0.03411505,-0.18718168,0.1377039,0.0,0.0
0.46684733,-0.14577654,0.20723432,0.0,0.0
-0.10474347,-0.18483573,0.07513099,0.0,0.0
0.8324254,-0.13500412,0.13055307,0.0,0.0
-0.036555327,-0.115652576,0.15117556,0.0,0.0
-0.33655798,-0.019541286,-0.040087726,0.0,0.0
-0.57315,0.15647376,-0.09400578,0.0,0.0
-0.5203017,0.025731994,-0.06165339,0.0,0.0
0.2272873,-0.17534651,0.25134525,0.0,0.0
0.04490131,-0.114396684,-0.11266148,0.0,0.0
-0.73503214,0.23361541,-0.09460314,0.0,0.0
-0.36133432,0.056104925,-0.15429252,0.0,0.0
0.31449813,-0.1430016,-0.09066846,0.0,0.0
0.2647664,0.27203462,-0.10721082,0.0,0.0
0.051301997,0.139322,-0.12077964,0.0,0.0
0.4612197,0.029668823,-0.008987117,0.0,0.0
0.121744625,-0.12528133,-0.13890895,0.0,0.0
-0.10289454,-0.17131877,0.059752207,0.0,0.0
-0.24821442,-0.037769847,-0.08731681,0.0,0.0
-0.049935218,0.116963215,0.0054262704,0.0,0.0
0.11154226,-0.09204369,0.15356793,0.0,0.0
0.41326264,-0.038419563,-0.18488403,0.0,0.0
-0.15891376,-0.22475973,0.030580673,0.0,0.0
0.8941413,-0.06795271,-0.0076938625,0.0,0.0
0.20656648,-0.14265475,-0.029484518,0.0,0.0
0.25604695,0.27530456,0.06731115,0.0,0.0
0.59081,0.3849856,0.06377554,0.0,0.0
0.18387975,-0.14709942,0.10654604,0.0,0.0
-0.1178636,-0.13758767,-0.06827712,0.0,0.0
0.21815461,-0.095848486,0.045414854,0.0,0.0
-0.72666734,-0.23047338,0.17273673,0.0,0.0
-0.2216317,-0.083086476,0.14098158,0.0,0.0
-0.9967024,0.047296852,-0.022039551,0.0,0.0
0.03526449,-0.13188097,-0.123910576,0.0,0.0
-0.19786896,-0.13927875,0.00070069346,0.0,0.0
-0.22750619,-0.17929848,0.28509077,0.0,0.0
0.18722028,-0.2660468,0.0097753275,0.0,0.0
-0.15251978,-0.034719102,-0.13716134,0.0,0.0
-0.36132175,-0.04254625,0.15045689,0.0,0.0
-0.4825952,0.01529287,-0.043252025,0.0,0.0
0.14917521,-0.15562983,0.09496937,0.0,0.0
0.26060638,0.098836854,-0.13932717,0.0,0.0
0.50087446,0.08132937,0.031212453,0.0,0.0
0.73189354,0.19542934,-0.0759701,0.0,0.0
-1.001246,0.120544784,-0.09248396,0.0,0.0
-0.36657733,-0.14626773,0.2042183,0.0,0.0
0.14781584,-0.0832025,0.28185374,0.0,0.0
-0.722983,-0.08708658,0.08020639,0.0,0.0
-0.67918324,-0.004932398,-0.054401934,0.0,0.0
-0.22985666,0.26240855,-0.07754528,0.0,0.0
0.63584304,0.08129088,-0.100292906,0.0,0.0
-0.42560694,-0.10167578,-0.12709098,0.0,0.0
-0.10729656,-0.14589429,0.08358964,0.0,0.0
-0.14993021,0.004641611,-0.0034130814,0.0,0.0
-0.4178501,-0.07330394,0.049571373,0.0,0.0
-0.56678057,-0.15018752,0.12380245,0.0,0.0
-0.56844246,-0.14289135,0.1523057,0.0,0.0
0.48102763,-0.043720603,0.10178501,0.0,0.0
0.7806454,-0.14617339,0.1952144,0.0,0.0
0.11224588,-0.16984634,-0.049097788,0.0,0.0
-0.2612102,0.12166225,-0.05671734,0.0,0.0
0.79341537,0.11391578,0.036891364,0.0,0.0
-0.73269874,-0.003346872,0.019184472,0.0,0.0
-0.34245253,-0.18264833,-0.001369046,0.0,0.0
0.8193497,0.1972609,-0.078330986,0.0,0.0
0.1778298,-0.01505928,-0.119384415,0.0,0.0
0.5153868,-0.011243675,0.007434349,0.0,0.0
0.41404355,0.024705723,0.042615663,0.0,0.0
0.419452,-0.06710914,-0.0851372,0.0,0.0
-0.026429242,0.06541768,-0.10906377,0.0,0.0
0.7616952,0.1307292,-0.013584517,0.0,0.0
0.57627296,-0.24880439,-0.027436085,0.0,0.0
0.5097311,-0.13366336,0.21399811,0.0,0.0
0.082299024,-0.14271015,-0.13499516,0.0,0.0
0.20607106,0.112027586,-0.15315376,0.0,0.0
-0.6264631,-0.13878296,0.103075236,0.0,0.0
-0.42476675,0.19890136,0.038928412,0.0,0.0
-0.2211603,0.12710844,-0.048044056,0.0,0.0
0.07505238,-0.11631767,0.16291066,0.0,0.0
0.22355548,-0.15389475,-0.10387822,0.0,0.0
-0.62163,0.14738448,-0.10870546,0.0,0.0
0.41854098,0.17440681,-0.052479308,0.0,0.0
-0.4194402,0.01816128,-0.087190926,0.0,0.0
-0.18834001,-0.29941714,0.25862616,0.0,0.0
-0.061950345,0.15502046,-0.08763394,0.0,0.0
0.052261885,0.11073103,-0.07442042,0.0,0.0
-0.5101884,0.16773853,0.02165025,0.0,0.0
0.75281537,0.38558373,-0.1578776,0.0,0.0
0.36268455,-0.061289158,0.10675552,0.0,0.0
0.5928789,0.09201808,-0.11926777,0.0,0.0
-0.13408801,0.14287657,-0.12722005,0.0,0.0
0.6586455,0.7300606,-0.021472707,0.0,0.0
0.42723304,0.04832016,-0.05711296,0.0,0.0
-0.6059754,-0.16105953,0.06704921,0.0,0.0
-0.6812623,-0.047240883,0.11883206,0.0,0.0
0.6199304,-0.06643243,-0.013480991,0.0,0.0
0.23814878,0.21985635,0.10413538,0.0,0.0
0.75934076,-0.08165666,-0.06753898,0.0,0.0
0.17334223,-0.17864029,-0.09884651,0.0,0.0
0.22869697,-0.0974818,0.08898652,0.0,0.0
-0.27361545,-0.041403595,-0.0102840625,0.0,0.0
-0.60305095,0.0612528,-0.13879076,0.0,0.0
0.7817095,-0.06431004,-0.05224083,0.0,0.0
-0.3861029,-0.15205249,0.18431154,0.0,0.0
-0.4286084,0.12129669,-0.08630043,0.0,0.0
0.6185936,-0.045039922,-0.14278924,0.0,0.0
0.19544677,-0.22071879,0.068801746,0.0,0.0
0.22456273,-0.17577624,0.13154837,0.0,0.0
-0.6985249,-0.029672923,-0.095415756,0.0,0.0
-0.43002975,-0.19214737,-0.059448227,0.0,0.0
0.22484757,-0.055478375,-0.04047397,0.0,0.0
-0.04550011,-0.011498312,-0.032006934,0.0,0.0
0.6968787,-0.13969597,0.22409718,0.0,0.0
0.5799628,-0.28284016,-0.17433552,0.0,0.0
-0.81337744,-0.17522007,-0.14672343,0.0,0.0
-0.36452124,-0.166621,0.07956342,0.0,0.0
0.46206766,0.09861522,-0.16690917,0.0,0.0
-0.33017376,-0.24219319,0.050725617,0.0,0.0
-0.47926217,-0.09397208,-0.08588624,0.0,0.0
-0.08627981,-0.20340355,0.28267062,0.0,0.0
0.055553973,0.19081286,-0.051168807,0.0,0.0
0.051403318,-0.07986036,0.119374275,0.0,0.0
-0.7635141,-0.18939358,0.05862365,0.0,0.0
0.79357755,-0.09968242,0.13867973,0.0,0.0
-0.23055784,-0.09468536,-0.0012147416,0.0,0.0
0.5969546,0.2639532,-0.14787367,0.0,0.0
0.2155702,-0.15607268,-0.105438136,0.0,0.0
0.6755032,-0.15574595,-0.1605037,0.0,0.0
-0.8194512,-0.034328833,-0.04062023,0.0,0.0
-0.24787314,-0.21538933,0.025967987,0.0,0.0
-0.6381462,-0.03966059,-0.1355428,0.0,0.0
-0.6518012,-0.19570976,0.075850554,0.0,0.0
0.013420985,-0.05134568,0.08766099,0.0,0.0
0.19699186,-0.0426671,-0.009417156,0.0,0.0
0.85462016,-0.17831181,-0.017510958,0.0,0.0
0.5378989,-0.10638449,-0.02208344,0.0,0.0
-0.13922796,0.0021353792,-0.053442076,0.0,0.0
-0.7620154,0.011909764,-0.056756888,0.0,0.0
0.5774557,-0.03215754,0.029654814,0.0,0.0
0.9057018,-0.091110855,0.1425345,0.0,0.0
-0.0055104215,0.15885389,0.056937337,0.0,0.0
-0.71451926,-0.03255618,-0.08110058,0.0,0.0
-0.4992341,-0.1549316,0.13092831,0.0,0.0
-0.76777595,0.07937861,-0.1797858,0.0,0.0
0.48590517,0.34322685,-0.10348777,0.0,0.0
-0.6516431,0.087637104,-0.12626843,0.0,0.0
-0.11405299,0.06796725,-0.07910291,0.0,0.0
-0.11597249,0.14564483,-0.095246024,0.0,0.0
0.30486542,-0.025209185,-0.05170737,0.0,0.0
0.684003,-0.14750853,0.21864551,0.0,0.0
0.3985191,-0.11207166,-0.109312475,0.0,0.0
-0.7012463,0.037239622,-0.12948462,0.0,0.0
0.22379063,-0.12320938,0.13966106,0.0,0.0
-0.4653882,0.2631788,-0.07435354,0.0,0.0
-0.50895536,0.11220188,-0.12329892,0.0,0.0
-0.09496083,0.03103863,-0.1483369,0.0,0.0
0.3058191,-0.027923737,0.041889697,0.0,0.0
0.3709044,-0.19416332,-0.004851904,0.0,0.0
0.13936767,0.22431575,-0.12031434,0.0,0.0
0.5826189,-0.2115916,-0.08484627,0.0,0.0
-0.6638189,-0.19962865,-0.073014736,0.0,0.0
-0.1848505,-0.2783617,0.40600303,0.0,0.0
-0.6723202,-0.07332416,0.0066031753,0.0,0.0
-0.5383372,0.12946887,-0.12344536,0.0,0.0
-0.30261022,-0.16428764,0.17288677,0.0,0.0
0.59966373,0.112120345,0.10570298,0.0,0.0
0.60322934,-0.18009272,0.2532937,0.0,0.0
0.5117128,0.30281323,-0.0849743,0.0,0.0
-0.5282223,-0.041415468,0.018780157,0.0,0.0
-0.15611818,0.19633514,0.013877136,0.0,0.0
0.82852936,-0.059283517,0.016839487,0.0,0.0
-0.051655687,-0.23225915,0.02385433,0.0,0.0
-0.014917965,-0.08085741,0.058941938,0.0,0.0
0.14138024,-0.18610895,0.07424454,0.0,0.0
-0.39338666,0.07012575,-0.060010426,0.0,0.0
-0.040246956,-0.07349865,0.047984645,0.0,0.0
0.5122327,0.12021805,-0.075537935,0.0,0.0
0.77578723,0.20490089,-0.104262024,0.0,0.0
-0.6654878,0.08219639,0.0074098734,0.0,0.0
-0.4745925,-0.11230828,0.2281904,0.0,0.0
0.039749935,-0.1594574,0.08592891,0.0,0.0
0.12205675,0.3733556,-0.12828591,0.0,0.0
0.28450444,0.2447273,-0.071151204,0.0,0.0
0.36743647,-0.012521976,-0.08232102,0.0,0.0
0.33868387,-0.19959712,0.001790766,0.0,0.0
0.012541277,0.15083617,0.14754295,0.0,0.0
0.49091262,0.04520996,-0.054860752,0.0,0.0
-0.20135574,0.12370155,-0.13537338,0.0,0.0
0.04449217,-0.07163301,-0.07888432,0.0,0.0
0.7722551,-0.19485743,0.015352679,0.0,0.0
0.35781366,-0.23102808,-0.07027835,0.0,0.0
-0.29214385,-0.087516874,0.036767166,0.0,0.0
0.17555557,-0.06547872,-0.14653471,0.0,0.0
0.012483553,-0.08805288,-0.035654508,0.0,0.0
0.41936004,-0.019412227,0.16979158,0.0,0.0
-0.50325215,0.21702646,-0.08639412,0.0,0.0
0.26864135,-0.07572738,-0.04792046,0.0,0.0
-0.18273364,0.07887585,0.12794961,0.0,0.0
0.8606158,0.18146913,-0.073421925,0.0,0.0
-0.20615235,-0.13431601,0.08213735,0.0,0.0
0.5338729,-0.07425563,0.051675044,0.0,0.0
0.08460798,-0.19244336,0.1037218,0.0,0.0
0.28420505,0.17466396,-0.085828856,0.0,0.0
-0.69714826,-0.15410621,-0.062128685,0.0,0.0
-0.5159296,-0.12373548,0.0742408,0.0,0.0
0.7630565,-0.037984315,-0.050544027,0.0,0.0
-0.43127924,0.016786015,-0.055661853,0.0,0.0
0.4454193,-0.08017372,-0.05471596,0.0,0.0
-0.072474234,0.0037058024,0.051852383,0.0,0.0
0.081869856,-0.0099641485,-0.003253617,0.0,0.0
0.6554103,-0.2315609,0.22950794,0.0,0.0
0.77360755,-0.0062477873,-0.07689581,0.0,0.0
0.5484645,0.29357418,-0.12518314,0.0,0.0
-0.05594513,0.1139296,-0.097411826,0.0,0.0
0.4255151,-0.09138638,-0.039451193,0.0,0.0
-0.34981117,0.14399576,-0.059624378,0.0,0.0
0.46493733,-0.070026055,-0.0695014,0.0,0.0
-0.61095405,-0.1569868,-0.02844044,0.0,0.0
-0.11951887,-0.07418039,-0.0069756187,0.0,0.0
0.29928344,-0.11306844,0.11481204,0.0,0.0
-0.28089556,0.058059137,-0.079550676,0.0,0.0
-0.71367735,-0.07173899,-0.045485623,0.0,0.0
0.14407049,-0.1709783,0.22193861,0.0,0.0
-0.21983737,-0.030056816,-0.046757117,0.0,0.0
-0.18743718,-0.1976277,0.24151692,0.0,0.0
-0.3387741,0.06666568,-0.090571545,0.0,0.0
-0.27636084,-0.122938,-0.13585967,0.0,0.0
0.19230604,-0.10069381,-0.047157124,0.0,0.0
0.035548933,-0.18269087,0.08511321,0.0,0.0
-0.388849,-0.22223537,-0.07417448,0.0,0.0
-0.56325746,-0.09684685,-0.021074353,0.0,0.0
0.43353128,-0.12300636,-0.07901262,0.0,0.0
-0.089372076,-0.16763034,-0.120154634,0.0,0.0
-0.6160602,0.049598772,-0.10425034,0.0,0.0
-0.2798004,-0.109264985,0.16065304,0.0,0.0
-0.3164279,0.19623679,-0.06890884,0.0,0.0
-0.071958445,-0.21044755,0.26485175,0.0,0.0
-0.66950727,-0.14226034,-0.038163725,0.0,0.0
0.050487336,0.17777008,-0.088552445,0.0,0.0
0.32852054,-0.13092802,-0.02921967,0.0,0.0
-0.24252139,0.22025718,-0.07521725,0.0,0.0
-0.059277706,-0.15170743,0.26502466,0.0,0.0
0.19621249,0.28840405,-0.05516354,0.0,0.0
-0.17511936,0.22739933,-0.07472401,0.0,0.0
-0.45030892,0.01273038,-0.094552875,0.0,0.0
-0.21118388,0.0028828841,-0.14019306,0.0,0.0
-0.31880167,-0.031657044,0.031150896,0.0,0.0
-0.5447051,-0.17773953,0.15985762,0.0,0.0
0.28507704,0.27752247,-0.10471572,0.0,0.0
0.024211861,0.112454735,-0.1156232,0.0,0.0
-0.1124012,0.0019986464,-0.14892378,0.0,0.0
-0.16782506,-0.13482046,0.09526745,0.0,0.0
-0.62735015,-0.11686191,0.023363002,0.0,0.0
0.03197316,0.027478997,-0.15487762,0.0,0.0
0.7647583,-0.113461524,0.03221798,0.0,0.0
0.41105935,-0.09474128,0.08767564,0.0,0.0
0.63885874,0.08230679,-0.1446293,0.0,0.0
0.53360444,0.3465509,-0.08186745,0.0,0.0
-0.058378275,-0.09176995,0.31865108,0.0,0.0
-0.48561415,-0.014046617,0.03274441,0.0,0.0
-0.08384462,0.09866249,-0.12532121,0.0,0.0
-0.08943942,-0.012470429,-0.032052793,0.0,0.0
0.8576511,0.039645333,-0.034975506,0.0,0.0
0.41396078,-0.16092819,-0.03764508,0.0,0.0
-0.008727636,-0.20980312,0.25747892,0.0,0.0
-0.1985105,0.010355852,-0.14266835,0.0,0.0
0.031130096,0.006216723,0.15091392,0.0,0.0
-0.27717984,0.0317714,0.064529516,0.0,0.0
-0.369273,0.04426789,0.016190663,0.0,0.0
-0.17847502,-0.1949395,0.17620167,0.0,0.0
0.5206703,-0.08984561,0.09383402,0.0,0.0
-0.56446856,-0.19121432,0.1869011,0.0,0.0
0.4693913,-0.02486379,0.02928937,0.0,0.0
-0.18804775,0.09961708,-0.18243365,0.0,0.0
-0.42524883,0.056636393,-0.11640134,0.0,0.0
0.36557037,-0.07024227,0.19149177,0.0,0.0
0.2690609,-0.081043035,0.049544238,0.0,0.0
-0.85181224,0.08810933,-0.04218431,0.0,0.0
0.3413113,-0.13784869,-0.016013347,0.0,0.0
-0.5331181,-0.04029609,0.039761875,0.0,0.0
-0.6284873,0.063656025,-0.104947135,0.0,0.0
-0.11875176,-0.047932956,0.029858194,0.0,0.0
0.4106324,-0.15307763,0.19751246,0.0,0.0
-0.060348254,-0.050882306,-0.1513503,0.0,0.0
0.3984403,-0.10854124,-0.097438306,0.0,0.0
-0.14246136,0.006526474,-0.08663474,0.0,0.0
-0.6558717,0.0017032546,-0.116956525,0.0,0.0
-0.4151424,-0.003100294,0.08035603,0.0,0.0
0.58044404,0.15359437,-0.09091869,0.0,0.0
-0.20907946,-0.09192464,0.053122215,0.0,0.0
0.10771122,-0.1890186,0.13291414,0.0,0.0
-0.042390358,-0.035411462,-0.075365044,0.0,0.0
0.12632662,-0.070093736,0.105553634,0.0,0.0
-0.15930058,-0.20786777,0.10870829,0.0,0.0
0.5113327,-0.10378834,0.19701798,0.0,0.0
-0.7570793,-0.12853876,-0.074041754,0.0,0.0
-0.52807915,0.015136321,-0.06082314,0.0,0.0
-0.4100863,0.10814004,-0.05403064,0.0,0.0
0.54886,-0.07046101,-0.1645906,0.0,0.0
0.78587794,0.035723325,-0.1136365,0.0,0.0
-0.40844676,-0.12622292,-0.01896727,0.0,0.0
-0.48744377,-0.1889594,0.15933971,0.0,0.0
0.4716247,-0.08362499,-0.010721076,0.0,0.0
0.37440595,-0.051051244,0.05538931,0.0,0.0
0.5894862,0.015078619,0.0394811,0.0,0.0
0.5359461,-0.13326555,0.0028810014,0.0,0.0
-0.4431403,-0.10275529,0.09901925,0.0,0.0
0.07988304,-0.3895029,0.23394144,0.0,0.0
-0.46406546,0.18945147,-0.020510308,0.0,0.0
-0.5017445,0.11849901,0.01700868,0.0,0.0
0.4184378,-0.1749605,0.19089466,0.0,0.0
-0.41465044,-0.15763469,0.14137167,0.0,0.0
0.09073885,0.16826127,-0.14454322,0.0,0.0
-0.26189458,-0.22785689,-0.19262277,0.0,0.0
0.35353702,-0.22659601,0.08863168,0.0,0.0
0.24468611,0.39125007,0.03912304,0.0,0.0
0.06398128,-0.17030616,-0.0320177,0.0,0.0
-0.22067533,0.06448651,-0.006218583,0.0,0.0
-0.45275742,-0.08406888,0.008880194,0.0,0.0
-0.123972364,-0.24869464,0.03273128,0.0,0.0
0.38820133,0.20651548,-0.101527154,0.0,0.0
-0.18484874,-0.16174825,0.11198012,0.0,0.0
0.02528629,0.03576252,-0.11965085,0.0,0.0
0.15860006,-0.14757064,-0.07710301,0.0,0.0
0.8539331,0.008194003,-0.12275102,0.0,0.0
0.22532535,-0.22838932,-0.05202249,0.0,0.0
-0.10186366,0.065420374,-0.06956578,0.0,0.0
-0.314575,-0.024275113,0.0123948725,0.0,0.0
-0.31022745,-0.16966748,0.23016952,0.0,0.0
0.099742755,0.06232895,-0.1499787,0.0,0.0
-0.3847431,-0.11558494,0.0021273713,0.0,0.0
0.6313473,0.07236465,-0.048576284,0.0,0.0
0.25414094,-0.16371256,0.08012629,0.0,0.0
0.48711044,-0.19376549,0.024027506,0.0,0.0
0.430607,-0.18318364,0.13339093,0.0,0.0
-0.052398495,0.070793316,-0.14471608,0.0,0.0
-0.27515534,-0.08923104,0.0303908,0.0,0.0
0.6439909,-0.20244251,0.15303409,0.0,0.0
-0.15883121,0.3608172,-0.062502086,0.0,0.0
0.5702479,-0.039366774,-0.053235393,0.0,0.0
-0.018727133,-0.07870293,0.07679935,0.0,0.0
0.674684,0.0099719,-0.102240175,0.0,0.0
-0.4486251,-0.019555874,0.17649214,0.0,0.0
0.77931666,0.10159439,-0.09966983,0.0,0.0
0.7264369,0.032895364,-0.0741953,0.0,0.0
0.20400807,-0.11593388,0.13174565,0.0,0.0
0.45159256,-0.12299417,0.041429028,0.0,0.0
0.43546715,-0.08612702,-0.13234422,0.0,0.0
0.20960855,0.6248463,-0.07041724,0.0,0.0
0.36559436,0.049552776,-0.13179934,0.0,0.0
0.58933586,-0.08691323,-0.1518551,0.0,0.0
0.51144385,-0.073963106,0.078741476,0.0,0.0
-0.2795437,-0.031174991,0.13539636,0.0,0.0
-0.6971462,-0.21950352,0.056612924,0.0,0.0
-0.09933438,-0.28422138,0.2871896,0.0,0.0
-0.31208643,0.1140016,-0.14791888,0.0,0.0
-0.8342835,0.105221696,0.2531605,0.0,0.0
-0.13362888,-0.0661975,0.09441326,0.0,0.0
0.23221874,0.17682488,-0.10027866,0.0,0.0
0.032274112,-0.0017038267,0.22165827,0.0,0.0
-0.5793185,-0.17293976,-0.07405069,0.0,0.0
-0.34491584,-0.17789274,0.14062423,0.0,0.0
0.16307573,-0.11530371,0.17800525,0.0,0.0
0.6955442,-0.098559424,0.070167325,0.0,0.0
-0.5570423,0.23994844,-0.13814387,0.0,0.0
-0.33388075,-0.28905165,-0.25349373,0.0,0.0
-0.56079876,0.20268854,-0.10059135,0.0,0.0
0.18752797,0.017748091,0.048851367,0.0,0.0
0.14857616,0.063647635,-0.2044684,0.0,0.0
-0.05338844,-0.017782936,-0.04585939,0.0,0.0
0.5756366,-0.11394272,-0.0065343007,0.0,0.0
0.8571981,0.27909973,-0.03179448,0.0,0.0
-0.15627228,-0.06605739,-0.16713956,0.0,0.0
0.28566924,-0.13006006,0.045847315,0.0,0.0
-0.047973357,-0.10267656,0.06213296,0.0,0.0
-0.43744493,0.09149915,-0.065147236,0.0,0.0
0.26325583,-0.06629312,0.0239755,0.0,0.0
-0.47665977,0.17798127,-0.118599616,0.0,0.0
-0.13378367,-0.27174708,0.11047911,0.0,0.0
-0.4179638,-0.11539788,0.12769453,0.0,0.0
0.73288447,-0.17944722,0.1896107,0.0,0.0
-0.36512968,-0.02842549,0.0893283,0.0,0.0
-0.42398584,-0.119704425,0.08722087,0.0,0.0
0.904102,-0.03303559,0.035205908,0.0,0.0
0.58600134,-0.12540896,0.017355343,0.0,0.0
-0.28259593,0.43278858,-0.055411804,0.0,0.0
-0.42636076,-0.13266177,0.022310507,0.0,0.0
-0.61768955,0.0064859553,-0.14559965,0.0,0.0
0.38557565,0.13503833,-0.10851433,0.0,0.0
-0.47211745,-0.1944369,0.109198734,0.0,0.0
0.0570571,-0.13848312,0.19177715,0.0,0.0
0.0580734,0.09711856,-0.05239998,0.0,0.0
-0.4750328,-0.03222304,-0.0494876,0.0,0.0
-0.14200747,0.15264511,-0.05582514,0.0,0.0
0.5447631,-0.040428765,-0.015585089,0.0,0.0
-0.1773161,-0.18359734,0.17350297,0.0,0.0
-0.5590383,0.03902127,-0.14401276,0.0,0.0
-0.044579007,-0.12502757,-0.0035665655,0.0,0.0
0.23740037,0.14819506,-0.049475744,0.0,0.0
0.40220094,0.06315317,-0.12595302,0.0,0.0
0.055410217,-0.0054505626,0.009309679,0.0,0.0
0.5487697,-0.14511919,0.14657928,0.0,0.0
-0.075865425,0.020778164,-0.007938268,0.0,0.0
-0.4045627,-0.09963486,-0.15575273,0.0,0.0
-0.35897797,0.054796588,0.05282007,0.0,0.0
0.5065371,-0.15435933,-0.0505077,0.0,0.0
0.5205962,0.005212151,0.057654895,0.0,0.0
0.3430051,0.3697826,-0.043234013,0.0,0.0
-0.70296913,-0.06726508,-0.11575053,0.0,0.0
-0.8539728,-0.088408805,-0.05535748,0.0,0.0
-0.54886585,-0.19641705,0.062189765,0.0,0.0
0.7575489,-0.13670115,0.10413935,0.0,0.0
-0.80515546,-0.0042704847,-0.08919836,0.0,0.0
0.17806458,-0.07387374,0.21644944,0.0,0.0
-0.72575426,-0.12945943,-0.12545256,0.0,0.0
0.53386486,-0.002701801,0.019099828,0.0,0.0
-0.41911867,0.18095161,-0.031139763,0.0,0.0
0.83775777,0.1727278,-0.07424158,0.0,0.0
-0.14784846,0.030607812,-0.14463764,0.0,0.0
-0.35061193,-0.10091222,0.26162744,0.0,0.0
-0.0550728,-0.01079416,0.043280337,0.0,0.0
-0.08373812,0.34610134,-0.19282646,0.0,0.0
-0.24488331,-0.08315683,-0.029757895,0.0,0.0
0.10991833,0.22245705,-0.048077255,0.0,0.0
0.29913822,-0.07050494,-0.1500413,0.0,0.0
-0.16581818,0.16331263,-0.0782765,0.0,0.0
0.08858233,0.002686059,-0.0148983905,0.0,0.0
-0.26627198,0.102471784,0.035358544,0.0,0.0
0.04932898,-0.07080191,-0.15543209,0.0,0.0
0.49908096,0.20320535,-0.0805608,0.0,0.0
-0.2213804,-0.022342995,-0.11948442,0.0,0.0
-0.004111829,0.1692106,-0.056179397,0.0,0.0
0.2090238,-0.22563125,0.3125667,0.0,0.0
-0.33926073,0.09410861,-0.0824711,0.0,0.0
0.3586609,-0.033769596,0.030160507,0.0,0.0
-0.25430435,-0.19439377,-0.12271168,0.0,0.0
0.118771285,0.011558649,-0.18081601,0.0,0.0
-0.4952773,-0.07733905,0.0735088,0.0,0.0
-0.17304446,-0.04216034,0.19897333,0.0,0.0
0.32643217,-0.18643217,0.036179665,0.0,0.0
0.2855875,0.0020429844,-0.054419957,0.0,0.0
-0.26754057,-0.33853543,-0.017577078,0.0,0.0
-0.083150595,0.21989632,-0.10406701,0.0,0.0
-0.380801,-0.15196458,-0.08431953,0.0,0.0
0.097181655,-0.025602112,-0.12457069,0.0,0.0
0.028313108,0.13204981,0.007967226,0.0,0.0
0.014298796,-0.028647501,0.079147585,0.0,0.0
-0.21227764,-0.09123247,-0.032750446,0.0,0.0
0.43550065,0.24376886,0.08995052,0.0,0.0
0.2492495,-0.24289972,0.045428917,0.0,0.0
-0.5019929,0.20711976,0.0033647432,0.0,0.0
-0.4454814,-0.034757107,-0.091482446,0.0,0.0
0.03514499,-0.25547838,0.05984947,0.0,0.0
-0.35114422,-0.10627064,-0.15474626,0.0,0.0
-0.1976922,-0.12859413,0.06593605,0.0,0.0
0.0273256,-0.17562361,0.06458407,0.0,0.0
0.5301685,-0.14578569,-0.0058908956,0.0,0.0
0.5833631,-0.17939383,0.18128829,0.0,0.0
-0.44593093,-0.01573872,-0.0487459,0.0,0.0
-0.5611943,0.06698132,-0.016377196,0.0,0.0
0.87471277,0.1043167,-0.105165444,0.0,0.0
0.06423443,0.07097631,-0.11102403,0.0,0.0
-0.10608407,0.12300315,-0.090865135,0.0,0.0
-0.93299854,-0.085897386,-0.053354938,0.0,0.0
-0.13988812,-0.18699896,0.191425,0.0,0.0
0.11113122,-0.012522821,0.08612064,0.0,0.0
-0.13894033,0.21185036,0.016104631,0.0,0.0
-0.065470636,0.25004444,0.015971676,0.0,0.0
-0.36050022,-0.06455719,-0.07673732,0.0,0.0
-0.60438824,0.26146474,-0.10085188,0.0,0.0
0.48680842,-0.18080212,0.029260952,0.0,0.0
-0.02807321,0.0852687,-0.0624273,0.0,0.0
0.36005342,0.0016561733,0.09211146,0.0,0.0
0.9062756,0.3607671,0.110383645,0.0,0.0
0.33835807,0.3377845,-0.037407868,0.0,0.0
0.6529509,0.005576453,-0.017353548,0.0,0.0
0.14971149,-0.031842172,-0.08493922,0.0,0.0
0.6705308,-0.062117357,-0.024017159,0.0,0.0
-0.4815708,-0.057762504,0.02096244,0.0,0.0
