x,y,z,f,scl1
0.4727143,-0.061135933,0.12093643,0.0,0.0
-0.70312303,-0.1756509,0.24070308,0.0,0.0
0.5328632,0.22697216,-0.09647553,0.0,0.0
0.4341955,0.08261242,-0.16765839,0.0,0.0
-0.81210834,-0.14089574,0.06389006,0.0,0.0
-0.6603223,0.010203329,-0.046791613,0.0,0.0
0.44723943,-0.09442114,0.122499995,0.0,0.0
0.2555209,-0.17372291,-0.008770531,0.0,0.0
-0.42076978,0.12101834,-0.0013610646,0.0,0.0
-0.030567344,-0.16312107,0.013443898,0.0,0.0
0.029965844,-0.028695391,-0.09250585,0.0,0.0
-0.9708848,-0.31016085,-0.2757414,0.0,0.0
-0.19048916,0.12068473,-0.095999464,0.0,0.0
0.06045216,0.33980444,-0.0406273,0.0,0.0
-0.81464416,0.0060144095,-0.08427045,0.0,0.0
0.7757606,-0.08376079,-0.008266995,0.0,0.0
0.13225275,0.12813272,-0.13097794,0.0,0.0
-0.2582711,-0.08570019,0.08466369,0.0,0.0
0.52734464,-0.10679567,0.08657307,0.0,0.0
-0.6603663,-0.19354248,0.016436141,0.0,0.0
-0.2687329,-0.00066197437,-0.16227964,0.0,0.0
-0.54210407,0.041845627,0.01750309,0.0,0.0
0.47422978,-0.15810844,0.1862189,0.0,0.0
-0.9112377,0.05187982,-0.12161056,0.0,0.0
-0.2178818,0.040905394,-0.10708814,0.0,0.0
-0.49914175,-0.21023434,0.21694107,0.0,0.0
0.38956675,-0.11146444,-0.023925403,0.0,0.0
-0.7326145,-0.17778194,0.12468067,0.0,0.0
0.4826488,0.06604465,0.025431108,0.0,0.0
0.20497492,0.12824938,0.091535226,0.0,0.0
0.06467514,-0.14042144,0.1498803,0.0,0.0
0.22353546,0.045246735,-0.14545701,0.0,0.0
0.0043559545,-0.09005697,-0.023315838,0.0,0.0
0.6872991,0.24293308,-0.042259246,0.0,0.0
-0.43027946,0.25455415,-0.0682191,0.0,0.0
-0.29507276,0.07680214,0.09347001,0.0,0.0
0.8465257,-0.0753669,-0.13514028,0.0,0.0
0.027806237,0.17417161,-0.12021557,0.0,0.0
0.30285272,-0.17515366,-0.012893578,0.0,0.0
-0.16281506,-0.08624784,-0.012290454,0.0,0.0
0.0076755197,-0.028038023,0.10583083,0.0,0.0
-0.6904716,0.004950023,0.0004156311,0.0,0.0
0.8089283,-0.20080218,-0.13464622,0.0,0.0
0.026432106,-0.20736526,0.16754821,0.0,0.0
-0.07325353,-0.19216375,0.03408653,0.0,0.0
0.69256586,0.04109884,0.02550951,0.0,0.0
-0.08947671,-0.110056475,0.04213274,0.0,0.0
0.65360343,-0.16071132,0.19348079,0.0,0.0
0.18240054,0.11781262,-0.08825188,0.0,0.0
-0.29472375,-0.054061115,-0.0065019955,0.0,0.0
-0.36198235,-0.21312492,0.32913893,0.0,0.0
-0.63656014,0.0985736,-0.10864288,0.0,0.0
-0.10192408,0.12910102,-0.109433144,0.0,0.0
0.34120035,-0.119630255,0.12898381,0.0,0.0
0.6965573,-0.13845044,-0.15606716,0.0,0.0
-0.8367953,-0.20521131,-0.05137637,0.0,0.0
-0.83711594,-0.11269802,0.06925862,0.0,0.0
-0.5275357,-0.14245535,0.0031925254,0.0,0.0
0.5937164,-0.19759448,-0.0059409444,0.0,0.0
0.3201121,-0.12897322,-0.16760884,0.0,0.0
-0.26905826,-0.124644294,0.15101792,0.0,0.0
-0.021018216,-0.16395628,0.08568898,0.0,0.0
-0.37296543,0.22907336,-0.106514715,0.0,0.0
-0.15183036,0.11607521,-0.06310976,0.0,0.0
0.8067989,-0.051515605,-0.045220792,0.0,0.0
0.24666181,-0.055663828,-0.002685458,0.0,0.0
0.57690537,0.05563272,-0.13279489,0.0,0.0
0.53045994,-0.14154314,0.24246022,0.0,0.0
-0.9579829,0.21329233,-0.13956076,0.0,0.0
-0.070230104,0.025827305,-0.06547871,0.0,0.0
-0.050949715,-0.23331954,0.17547159,0.0,0.0
-0.06584092,-0.07227595,0.089954495,0.0,0.0
-0.2865087,0.11549406,-0.07489897,0.0,0.0
0.2135802,0.18237501,0.07857275,0.0,0.0
-0.38287282,-0.00093813415,-0.012386284,0.0,0.0
0.27990213,-0.20594884,-0.17854352,0.0,0.0
0.28349444,-0.053425565,0.052734137,0.0,0.0
0.23675722,-0.15429206,0.054520167,0.0,0.0
-0.36237994,0.17323223,-0.093552604,0.0,0.0
-0.6774664,-0.10546671,-0.12104971,0.0,0.0
0.019549385,-0.20450294,0.018699262,0.0,0.0
-0.058617406,0.040203605,-0.0866975,0.0,0.0
0.11719249,-0.07637734,-0.087248154,0.0,0.0
-0.08958172,0.15867475,-0.14425763,0.0,0.0
0.027509835,-0.04921847,0.13073546,0.0,0.0
0.49675193,0.23512736,-0.078826904,0.0,0.0
0.012143943,0.101364076,-0.10914319,0.0,0.0
0.27358094,0.0067250347,0.12442725,0.0,0.0
-0.7965796,-0.17475976,0.099682376,0.0,0.0
0.42256436,-0.06297118,0.039455313,0.0,0.0
0.39075384,-0.09892547,-0.2144411,0.0,0.0
0.14177899,0.18092774,-0.036689986,0.0,0.0
0.40885916,0.0062445523,-0.025566619,0.0,0.0
0.682249,-0.15254967,-0.109509416,0.0,0.0
-0.24807867,0.31850302,-0.09192674,0.0,0.0
-0.14551426,-0.17884642,-0.042128474,0.0,0.0
-0.34011984,-0.26015753,0.22201137,0.0,0.0
-0.33172527,-0.18184248,-0.044608284,0.0,0.0
-0.25010166,0.08417171,-0.115202144,0.0,0.0
0.58996576,-0.11182944,-0.13852839,0.0,0.0
-0.10817545,0.038811576,-0.07154809,0.0,0.0
0.8079703,-0.13987228,0.14331304,0.0,0.0
0.5750405,-0.14188072,0.17628859,0.0,0.0
-0.5240866,0.016216483,0.013250282,0.0,0.0
0.19094738,-0.17492984,-0.12655032,0.0,0.0
0.11856425,0.10353396,-0.10601296,0.0,0.0
-0.6298691,0.0092185335,-0.15279709,0.0,0.0
-0.18411118,-0.116351746,0.018670168,0.0,0.0
0.36887014,-0.23438822,0.16884403,0.0,0.0
0.062198646,-0.11238523,-0.13565873,0.0,0.0
-0.044724137,-0.22582005,0.09806993,0.0,0.0
-0.7114227,-0.16424543,0.1034913,0.0,0.0
-0.10058304,-0.05512629,0.14601026,0.0,0.0
0.10493901,0.19452558,-0.085217625,0.0,0.0
0.44089624,-0.07678633,-0.012836263,0.0,0.0
-0.00563161,0.026625872,-0.15610577,0.0,0.0
0.30121523,0.03612726,-0.16338508,0.0,0.0
0.19133763,-0.0626928,-0.054052632,0.0,0.0
0.5682191,-0.17619249,0.17915526,0.0,0.0
0.3062306,-0.014801841,-0.1356983,0.0,0.0
0.46893504,-0.12428297,0.004927846,0.0,0.0
-0.58584565,-0.15484717,-0.07186925,0.0,0.0
0.5169463,-0.08175293,-0.17040086,0.0,0.0
-0.04699025,0.13196947,-0.02436525,0.0,0.0
0.5428786,-0.11829625,0.12183097,0.0,0.0
-0.20654276,0.23402885,-0.12036096,0.0,0.0
-0.052862976,-0.15053138,0.10017763,0.0,0.0
-0.08286297,0.14373367,-0.033750597,0.0,0.0
0.43881515,0.18567911,-0.035632513,0.0,0.0
0.189393,-0.120273285,0.13525909,0.0,0.0
0.59837675,-0.09530031,-0.027185608,0.0,0.0
0.065659076,-0.14360817,-0.018964551,0.0,0.0
0.26241493,0.17895612,-0.11577109,0.0,0.0
0.36833048,0.0044900044,-0.13990827,0.0,0.0
-0.30880436,-0.23034905,-0.106732465,0.0,0.0
0.018381558,-0.035093248,-0.12048942,0.0,0.0
-0.3655154,-0.20958908,0.04830654,0.0,0.0
-0.19929914,-0.122178204,-0.11632603,0.0,0.0
0.46796393,-0.1000003,-0.1893899,0.0,0.0
0.14687234,0.26761857,-0.07444947,0.0,0.0
0.62361044,0.034139168,-0.1380158,0.0,0.0
-0.20579301,-0.10376943,-0.1057444,0.0,0.0
-0.3972889,-0.11549079,0.03575506,0.0,0.0
-0.787081,0.00472842,-0.06497686,0.0,0.0
0.866174,-0.28149503,0.12403138,0.0,0.0
0.022698158,-0.04742985,-0.0520783,0.0,0.0
-0.25739825,-0.17984414,0.26526153,0.0,0.0
0.61739403,-0.060402963,-0.108575,0.0,0.0
0.6228024,-0.017297747,0.047992554,0.0,0.0
0.8637124,-0.12516312,-0.053688202,0.0,0.0
-0.30235374,-0.10691522,0.1621986,0.0,0.0
-0.42409974,0.05871243,-0.007539828,0.0,0.0
-0.4296624,-0.11716477,-0.12384928,0.0,0.0
0.5235417,-0.03683235,-0.16768077,0.0,0.0
-0.039474253,0.05642044,-0.07323252,0.0,0.0
0.46752885,0.20873128,-0.079564065,0.0,0.0
-0.33258903,0.20931183,-0.0069690766,0.0,0.0
-0.27678737,-0.03378301,-0.07106908,0.0,0.0
0.41721827,-0.060067065,-0.1343136,0.0,0.0
0.4890859,0.21254243,-0.119641654,0.0,0.0
0.14185058,0.3558117,-0.009937287,0.0,0.0
0.5115085,0.06876974,-0.025852518,0.0,0.0
0.2643797,-0.10659771,-0.15014783,0.0,0.0
0.24356312,-0.08692616,-0.07141171,0.0,0.0
-0.21244079,-0.018085249,-0.024781074,0.0,0.0
-0.39958668,0.19451945,-0.0623302,0.0,0.0
-0.50497556,-0.33828792,0.12663604,0.0,0.0
0.5269986,0.40252864,0.038880542,0.0,0.0
-0.6483464,0.034769066,0.017000845,0.0,0.0
-0.6874096,0.095628545,-0.097416766,0.0,0.0
-0.89811933,0.0312348,-0.095740154,0.0,0.0
0.46266422,-0.16886543,0.0565893,0.0,0.0
-0.342303,-0.11517234,-0.022185529,0.0,0.0
-0.5967071,-0.10443831,-0.09820423,0.0,0.0
-0.18484801,-0.05006986,-0.02764145,0.0,0.0
0.43550143,-0.058343437,0.07038075,0.0,0.0
0.08377699,-0.01712386,-0.0051481663,0.0,0.0
-0.2578985,0.09374607,-0.10607626,0.0,0.0
-0.682831,-0.034688406,-0.077255346,0.0,0.0
0.092206545,0.08511537,-0.16087097,0.0,0.0
0.43469653,0.035400234,-0.06387357,0.0,0.0
0.8354617,-0.22486442,0.22250813,0.0,0.0
-0.18379426,0.0182099,-0.073995166,0.0,0.0
0.20340267,0.14837007,-0.08950762,0.0,0.0
0.12317922,-0.121061765,0.027924271,0.0,0.0
-0.17314857,-0.14794329,0.10317606,0.0,0.0
-0.3809734,-0.03140007,-0.00010620541,0.0,0.0
-0.3134473,-0.1957003,0.004974873,0.0,0.0
0.06494557,-0.024054987,-0.019564794,0.0,0.0
0.74936163,-0.033350497,0.004056492,0.0,0.0
-0.30135733,-0.1216268,-0.15227278,0.0,0.0
-0.03772067,-0.22898883,-0.08755612,0.0,0.0
-0.10271227,0.13199827,-0.09393148,0.0,0.0
0.25619516,-0.0856993,0.09313533,0.0,0.0
0.6630649,0.081332386,-0.1000025,0.0,0.0
0.5303234,-0.012363816,0.127898,0.0,0.0
-0.4228527,0.19235185,-0.13346602,0.0,0.0
0.2619865,-0.15878703,-0.06820592,0.0,0.0
0.2987986,-0.16442679,0.1336833,0.0,0.0
-0.7975768,-0.030098215,-0.017122803,0.0,0.0
-0.56869173,-0.01934081,-0.07462948,0.0,0.0
-0.15867104,-0.092845164,0.2216167,0.0,0.0
0.6130283,-0.055078592,0.03268263,0.0,0.0
0.51550823,-0.22114964,0.21386392,0.0,0.0
0.5057518,-0.1993722,0.17895915,0.0,0.0
0.36654148,0.06631656,-0.17036219,0.0,0.0
0.62991077,0.08981438,-0.08452014,0.0,0.0
0.3206805,-0.09854503,-0.16131277,0.0,0.0
0.74929315,-0.06128842,-0.03892542,0.0,0.0
-0.7523105,-0.10956488,-0.068700105,0.0,0.0
-0.06883731,0.043343,0.009563094,0.0,0.0
-0.47949162,0.31255075,-0.02232546,0.0,0.0
0.1581799,-0.11240551,0.15689212,0.0,0.0
0.45843813,0.021777032,-0.07758583,0.0,0.0
-0.80367976,-0.041488398,-0.10695471,0.0,0.0
-0.71223706,-0.011406581,-0.12909207,0.0,0.0
-0.11166748,-0.13200349,0.20401613,0.0,0.0
0.028826248,0.27637106,0.0064681773,0.0,0.0
-0.56704116,-0.08637876,0.044223513,0.0,0.0
0.517532,-0.099953204,-0.13540864,0.0,0.0
-0.18740349,0.060368348,-0.084075674,0.0,0.0
-0.7413778,-0.08672447,0.005719266,0.0,0.0
-0.092907526,-0.06954561,-0.121868834,0.0,0.0
-0.024499144,0.026559224,-0.035534937,0.0,0.0
0.12348887,-0.2172716,0.09722911,0.0,0.0
0.096940555,0.18726407,-0.12442316,0.0,0.0
0.44173807,0.010562886,-0.058493067,0.0,0.0
-0.38821012,-0.19041817,-0.068588905,0.0,0.0
0.3619629,0.060417775,-0.16793574,0.0,0.0
0.10246158,-0.21227705,-0.0016809143,0.0,0.0
0.66397643,-0.042436376,-0.20185636,0.0,0.0
0.07842556,-0.14547923,-0.06269491,0.0,0.0
-0.04297702,-0.10887915,0.042307768,0.0,0.0
-0.63166106,0.043236732,-0.07785646,0.0,0.0
0.07819516,0.12392682,0.23600776,0.0,0.0
0.16006234,0.050715666,-0.03080593,0.0,0.0
-0.85057694,-0.015506617,-0.09913117,0.0,0.0
0.5088784,-0.052572012,0.08462991,0.0,0.0
-0.750318,-0.022189617,-0.13527115,0.0,0.0
0.07753862,0.16031863,-0.014192594,0.0,0.0
-0.4995324,0.18043742,-0.095858395,0.0,0.0
0.31656906,0.30174896,-0.104894616,0.0,0.0
-0.47856212,-0.03821388,0.089329995,0.0,0.0
0.72353375,-0.20270643,0.1254206,0.0,0.0
-0.01115135,-0.09183314,-0.14280039,0.0,0.0
0.22635697,-0.05375098,-0.063167,0.0,0.0
-0.03607449,-0.00481145,0.056029126,0.0,0.0
-0.7242977,-0.2198764,-0.090657294,0.0,0.0
-0.5376802,0.036808245,-0.15584642,0.0,0.0
0.03523819,-0.23293313,0.056003116,0.0,0.0
-0.9182575,0.00076466415,-0.08680051,0.0,0.0
-0.0029565713,-0.10280899,0.1885858,0.0,0.0
-0.34757653,-0.17559154,0.16463153,0.0,0.0
0.15998879,-0.1988512,0.1787566,0.0,0.0
-0.17570001,0.055774722,-0.13277599,0.0,0.0
-0.37136516,-0.013586517,-0.1012266,0.0,0.0
0.60123485,0.087803304,0.09377016,0.0,0.0
0.60144496,-0.13103999,0.056857582,0.0,0.0
-0.62019444,-0.0030774157,-0.07655555,0.0,0.0
-0.6115424,0.20003098,-0.11932344,0.0,0.0
0.19320014,0.2690426,-0.01904745,0.0,0.0
0.71148795,-0.13313158,0.117155895,0.0,0.0
0.11985679,0.09721026,-0.10423358,0.0,0.0
0.36278835,-0.1012879,-0.16603376,0.0,0.0
0.23264909,-0.07386629,-0.10175454,0.0,0.0
0.25080717,-0.094072536,-0.17784405,0.0,0.0
0.24557137,-0.21128082,0.22740628,0.0,0.0
0.11792981,0.04592526,0.005328755,0.0,0.0
-0.52958566,0.14848635,-0.086199306,0.0,0.0
0.08257213,-0.1992735,0.010510286,0.0,0.0
0.18916652,0.23176952,-0.076195076,0.0,0.0
-0.25613695,0.06925404,-0.13975844,0.0,0.0
0.18851691,0.28854647,-0.12870064,0.0,0.0
-0.4510684,0.013935437,-0.16145808,0.0,0.0
0.1995494,-0.17671819,0.22475952,0.0,0.0
0.47091597,-0.13748255,0.28902563,0.0,0.0
0.7578809,-0.14407629,-0.009114581,0.0,0.0
0.3914745,-0.059554428,-0.1760409,0.0,0.0
0.08487359,-0.03873238,0.023311336,0.0,0.0
-0.63185656,-0.17314143,0.14381921,0.0,0.0
-0.4507764,-0.044178225,0.05577654,0.0,0.0
-0.27201295,-0.21581762,0.25819644,0.0,0.0
0.27863097,-0.08300731,-0.015606511,0.0,0.0
-0.5024843,-0.033855814,0.0016587717,0.0,0.0
0.22713247,-0.10771121,-0.16481452,0.0,0.0
0.33595604,-0.036201797,0.037118394,0.0,0.0
0.29023674,0.1563215,-0.02574322,0.0,0.0
0.08926375,-0.017418899,0.0046005542,0.0,0.0
-0.16582699,0.03000303,-0.078622766,0.0,0.0
-0.36876854,-0.0865706,-0.0764858,0.0,0.0
0.15913332,0.15377937,0.048187662,0.0,0.0
0.83429277,-0.048274133,0.040913373,0.0,0.0
-0.078894965,-0.048707977,0.08992871,0.0,0.0
0.4812536,-0.2317253,0.1333973,0.0,0.0
0.37940934,-0.17273253,0.19318834,0.0,0.0
-0.5326925,-0.1221335,0.09603182,0.0,0.0
0.24103875,-0.045610122,0.062231045,0.0,0.0
0.6713213,0.049585808,-0.10428911,0.0,0.0
-0.5266573,-0.08752229,-0.0622416,0.0,0.0
0.4495877,-0.059484098,0.07104367,0.0,0.0
-0.13185701,0.21199074,-0.113152415,0.0,0.0
-0.7313832,-0.08453871,-0.055236805,0.0,0.0
0.5831976,-0.05305267,-0.0044878055,0.0,0.0
0.20179102,0.26205492,0.014771929,0.0,0.0
0.0995521,0.030937806,-0.12078657,0.0,0.0
0.44390792,-0.18231414,0.12429088,0.0,0.0
-0.57523847,-0.23453976,0.09149311,0.0,0.0
-0.3478731,-0.14540076,0.082841344,0.0,0.0
0.13058814,-0.042602576,0.061820988,0.0,0.0
-0.45655417,0.097143814,-0.013276735,0.0,0.0
0.5642771,-0.22274432,0.1601824,0.0,0.0
0.5337208,0.164126,-0.13625549,0.0,0.0
-0.741595,0.13172331,-0.09352908,0.0,0.0
0.2028291,0.034101736,-0.08357639,0.0,0.0
0.047701247,-0.12081825,-0.013318897,0.0,0.0
-0.2672848,-0.071278065,-0.059702206,0.0,0.0
0.11985515,-0.08539871,-0.15628937,0.0,0.0
0.11973667,0.41695458,-0.04883407,0.0,0.0
0.3937607,-0.010148081,-0.18273315,0.0,0.0
0.67701036,-0.091441415,0.029552696,0.0,0.0
-0.27235186,-0.053468306,0.090510614,0.0,0.0
0.009987856,0.09325254,-0.12574948,0.0,0.0
0.4620728,-0.15697898,0.06907973,0.0,0.0
-0.5231859,-0.14338316,0.3097059,0.0,0.0
-0.5829594,-0.0024322756,-0.08121941,0.0,0.0
0.57172793,0.042424962,-0.149469,0.0,0.0
-0.1460968,-0.12568767,0.1442581,0.0,0.0
0.12935765,0.10407403,0.10262082,0.0,0.0
0.46052343,-0.18357687,-0.011227781,0.0,0.0
-0.20983374,-0.07328482,0.02257236,0.0,0.0
0.23842974,-0.17601927,0.26473457,0.0,0.0
0.74544764,-0.103124425,-0.085969165,0.0,0.0
0.70100206,-0.13482313,0.0047521773,0.0,0.0
-0.001100528,0.059246805,-0.1263669,0.0,0.0
-0.5101875,-0.1542578,0.003165833,0.0,0.0
0.07165514,-0.117476285,-0.13316312,0.0,0.0
0.25888753,-0.09922862,0.17051135,0.0,0.0
0.5061487,0.43976545,0.04531378,0.0,0.0
-0.40852168,0.4374813,-0.006324409,0.0,0.0
-0.1277709,0.10682268,-0.029341897,0.0,0.0
-0.7079909,0.01390281,-0.07962564,0.0,0.0
0.18537824,0.053415313,-0.031971123,0.0,0.0
-0.45864668,0.038301893,-0.12635948,0.0,0.0
0.017429573,0.09162478,0.065660834,0.0,0.0
-0.0774905,0.101729386,-0.07452269,0.0,0.0
0.28536493,0.28278086,-0.07310923,0.0,0.0
0.08810383,-0.10491522,-0.08657228,0.0,0.0
0.42131993,-0.08524762,-0.1510467,0.0,0.0
-0.20119376,0.0005878003,-0.019727634,0.0,0.0
-0.2556374,-0.10595779,0.06624896,0.0,0.0
-0.0070022335,-0.115002654,0.029820789,0.0,0.0
-0.25318956,0.116893336,-0.09490017,0.0,0.0
0.38703367,-0.14848441,0.2937616,0.0,0.0
-0.08394005,0.06822477,-0.047336895,0.0,0.0
-0.28719598,-0.113287754,0.13873959,0.0,0.0
0.34965178,-0.24767683,0.16461436,0.0,0.0
0.6669922,0.1551514,-0.1190219,0.0,0.0
-0.2684436,-0.15479033,0.039418608,0.0,0.0
0.40291277,0.044462223,-0.039930217,0.0,0.0
-0.39751908,0.013602539,-0.092842385,0.0,0.0
0.17301422,-0.16651931,0.20378166,0.0,0.0
-0.638366,-0.13830535,-0.09148685,0.0,0.0
-0.70401645,-0.037870556,-0.124664485,0.0,0.0
-0.084734224,-0.15729256,0.16874409,0.0,0.0
-0.68707955,0.00029262056,-0.09839525,0.0,0.0
-0.36195162,0.11210217,0.033194423,0.0,0.0
-0.09548573,-0.067409754,-0.12379945,0.0,0.0
0.6444937,-0.10831321,-0.1805049,0.0,0.0
0.7235033,-0.27379733,-0.06289244,0.0,0.0
0.28622502,-0.18024302,0.15888917,0.0,0.0
0.27709553,-0.19601616,-0.15243085,0.0,0.0
0.10572488,0.05486355,-0.0749892,0.0,0.0
-0.52999526,-0.25857466,0.037908375,0.0,0.0
0.64838624,-0.097966,0.056267075,0.0,0.0
0.17266186,0.1995723,-0.11681753,0.0,0.0
-0.15842995,-0.3803763,0.18780541,0.0,0.0
0.19824055,0.051714413,-0.10158129,0.0,0.0
-0.2934059,-0.25259387,-0.059450507,0.0,0.0
-0.38200617,-0.14366771,0.30620202,0.0,0.0
0.5285865,-0.1992684,0.053608317,0.0,0.0
0.83252114,-0.29687038,-0.072754376,0.0,0.0
0.26445353,0.2138152,-0.12740666,0.0,0.0
0.5121871,-0.22732686,-0.04229995,0.0,0.0
0.6753235,-0.18439975,0.2096367,0.0,0.0
-0.40401533,-0.24164255,-0.03952802,0.0,0.0
0.25480348,0.31836584,-0.050163146,0.0,0.0
0.21684007,-0.023388082,-0.15416968,0.0,0.0
0.15101351,0.016667327,-0.1771057,0.0,0.0
-0.37654454,-0.17346391,0.051047597,0.0,0.0
0.04831205,0.39601544,-0.07214566,0.0,0.0
0.4798298,-0.07957898,0.10310446,0.0,0.0
-0.2888028,-0.039781157,0.067404516,0.0,0.0
0.17997456,0.04625862,-0.14193244,0.0,0.0
0.49689037,-0.052430328,-0.05562328,0.0,0.0
0.17784517,-0.1132531,-0.1336712,0.0,0.0
-0.26524717,0.19833113,-0.013013646,0.0,0.0
0.17560214,-0.07963537,0.05934174,0.0,0.0
0.39467555,0.16096847,-0.11426176,0.0,0.0
-0.36079794,-0.18084879,0.12562108,0.0,0.0
0.6412389,-0.101472855,-0.15076856,0.0,0.0
0.24295245,-0.04753606,-0.012336236,0.0,0.0
0.43905994,0.13048956,-0.14491276,0.0,0.0
0.25677052,0.22273073,0.1504537,0.0,0.0
0.6134208,-0.017708724,0.052273393,0.0,0.0
-0.7401767,-0.029706024,-0.11120886,0.0,0.0
0.36860287,-0.13057053,0.08751545,0.0,0.0
0.3597852,-0.20738554,-0.056217518,0.0,0.0
0.3038315,0.05476735,-0.0017971573,0.0,0.0
0.34286156,-0.29901242,0.063504525,0.0,0.0
-0.4017576,-0.17106202,0.23658971,0.0,0.0
-0.68123394,-0.16094452,0.080201656,0.0,0.0
0.51316166,-0.19199172,0.10508208,0.0,0.0
0.020679928,0.1126346,-0.114861235,0.0,0.0
0.39662263,0.039050426,-0.18112196,0.0,0.0
0.5299394,-0.10846491,0.022403538,0.0,0.0
0.0954455,0.22011928,-0.06485343,0.0,0.0
0.87850255,-0.1564844,-0.06891812,0.0,0.0
-0.07270322,-0.1798585,-0.0013177618,0.0,0.0
0.538498,0.053348772,-0.06181389,0.0,0.0
0.6158453,-0.11889561,0.21872799,0.0,0.0
0.51424587,-0.24255565,0.27957547,0.0,0.0
0.23073952,0.03449302,0.002204114,0.0,0.0
0.14744717,-0.07450129,0.17937733,0.0,0.0
0.4999466,0.050792262,-0.13121513,0.0,0.0
-0.18934028,0.20542666,-0.08743988,0.0,0.0
-0.37731782,-0.546956,-0.31170592,0.0,0.0
-0.021963464,-0.15950596,0.14663272,0.0,0.0
-0.066784136,-0.07410717,0.022789935,0.0,0.0
-0.29017293,-0.006409408,-0.028157262,0.0,0.0
-0.14400591,-0.19558467,0.10087645,0.0,0.0
-0.0012071475,-0.30783296,0.19398515,0.0,0.0
-0.16087486,-0.23785229,0.25847352,0.0,0.0
-0.1448539,-0.22613774,0.21621326,0.0,0.0
0.17066357,-0.019295605,0.013162645,0.0,0.0
0.38693917,0.27787587,-0.11246863,0.0,0.0
-0.3158628,-0.2345868,0.16661268,0.0,0.0
0.49862775,-0.2001644,0.22568311,0.0,0.0
-0.016783752,-0.016735896,-0.062173534,0.0,0.0
0.15971717,-0.12939812,0.05380852,0.0,0.0
0.3742777,-0.2823218,0.10175732,0.0,0.0
-0.05065424,-0.040772017,0.01996075,0.0,0.0
0.6180536,-0.035733268,0.14922144,0.0,0.0
0.12435743,-0.15067036,0.022426004,0.0,0.0
-0.26633888,-0.08895604,-0.022241343,0.0,0.0
-0.49905342,0.08585598,0.052665763,0.0,0.0
-0.008870032,-0.19861023,0.23594557,0.0,0.0
0.38924256,0.32584536,0.015103204,0.0,0.0
0.54023206,-0.19624957,-0.014088416,0.0,0.0
0.6035802,0.39443913,-0.10078635,0.0,0.0
-0.58234483,0.17196788,0.00876631,0.0,0.0
0.21434751,0.023654923,-0.09486458,0.0,0.0
-1.045019,-0.0069812015,-0.14386584,0.0,0.0
0.7785473,-0.3094324,-0.07454628,0.0,0.0
-0.37450212,0.032960385,-0.09397032,0.0,0.0
-0.5757913,-0.0045315125,-0.062394496,0.0,0.0
-0.14724515,-0.1331067,0.20925888,0.0,0.0
0.7772501,-0.01210225,-0.059264675,0.0,0.0
0.4075496,0.5613641,0.2333758,0.0,0.0
-0.07223692,-0.141704,0.13924715,0.0,0.0
0.46131855,-0.20333882,0.24149081,0.0,0.0
0.6295459,0.108070254,-0.005467048,0.0,0.0
-0.06718939,-0.21994789,0.034364685,0.0,0.0
0.2897403,-0.17636561,0.05562892,0.0,0.0
0.1560166,-0.21703021,0.18193881,0.0,0.0
0.6058285,0.11547098,-0.001643593,0.0,0.0
-0.58356947,-0.22104253,0.28908986,0.0,0.0
-0.19076256,0.011770492,0.020047922,0.0,0.0
-0.17933238,-0.12143945,0.15804015,0.0,0.0
-0.40076032,-0.07600783,-0.1328333,0.0,0.0
0.31732318,0.28908938,-0.020490728,0.0,0.0
0.47526047,-0.2405835,0.24248599,0.0,0.0
0.60790694,-0.13271253,0.021814674,0.0,0.0
0.46854174,-0.14368902,-0.06082561,0.0,0.0
-0.7069599,0.05461092,-0.038133487,0.0,0.0
0.10753071,0.03029581,-0.051781807,0.0,0.0
0.8271234,-0.11927356,-0.050353874,0.0,0.0
-0.038073618,0.10692986,-0.090711914,0.0,0.0
0.7492172,-0.11133491,0.056121383,0.0,0.0
0.34700078,0.016086405,-0.0060439412,0.0,0.0
-0.038755115,-0.19588073,0.013776488,0.0,0.0
-0.22354491,-0.15944152,0.051399704,0.0,0.0
0.36678264,0.13223861,-0.06287476,0.0,0.0
0.118180305,-0.1605161,0.064826414,0.0,0.0
-0.0056236153,0.10817941,-0.04835509,0.0,0.0
-0.3907409,-0.050672643,0.08349999,0.0,0.0
0.46592873,-0.02313839,0.040733453,0.0,0.0
-0.12424202,-0.06802032,0.17516963,0.0,0.0
0.15333779,-0.18157183,0.24413718,0.0,0.0
-0.5162249,-0.11053352,-0.09254415,0.0,0.0
0.32387826,-0.039220534,0.09012159,0.0,0.0
0.74016297,-0.14678971,-0.01727548,0.0,0.0
-0.060023576,0.34744903,-0.076936685,0.0,0.0
0.34452322,-0.18974419,0.03529421,0.0,0.0
0.026024485,0.12660992,-0.12133162,0.0,0.0
0.12377097,-0.08871999,-0.07345218,0.0,0.0
0.18218312,0.0006595185,-0.03847792,0.0,0.0
-0.0027401336,-0.03947071,0.095827706,0.0,0.0
-0.60677797,-0.0653696,0.031427555,0.0,0.0
-0.5326153,-0.008270043,-0.11305834,0.0,0.0
-0.1421376,-0.056602925,0.042284407,0.0,0.0
0.2996378,-0.092814244,0.10851878,0.0,0.0
0.38155642,0.083574034,-0.081021965,0.0,0.0
-0.28695628,-0.07177887,0.17517647,0.0,0.0
-0.44148895,0.049304467,0.031035705,0.0,0.0
0.25753227,-0.16611634,-0.0804818,0.0,0.0
0.54597974,0.15088889,-0.13678434,0.0,0.0
0.042351477,-0.14705288,0.10636288,0.0,0.0
0.5423705,-0.18920618,-0.10021586,0.0,0.0
0.85571325,0.28331858,0.030359147,0.0,0.0
-0.63049275,0.27454108,-0.10858826,0.0,0.0
0.55879664,-0.10122464,0.05817094,0.0,0.0
-0.39067355,0.22747271,-0.10685991,0.0,0.0
-0.872548,-0.1562298,0.08972338,0.0,0.0
-0.13772988,-0.13605142,-0.13773456,0.0,0.0
0.74106896,-0.09744315,-0.07366242,0.0,0.0
0.3079057,-0.24703369,0.047665507,0.0,0.0
0.33690837,0.037164833,0.00650288,0.0,0.0
0.45373487,-0.2299733,0.16723457,0.0,0.0
0.62664455,-0.049867775,-0.032509718,0.0,0.0
-0.32905835,-0.12159191,0.22749148,0.0,0.0
-0.2374058,-0.007961656,-0.11050058,0.0,0.0
-0.76399916,-0.23122038,0.015395638,0.0,0.0
-0.09937647,0.14962538,-0.10617439,0.0,0.0
-0.9395701,0.12488464,-0.11649724,0.0,0.0
-0.70059395,-0.19632572,-0.004063713,0.0,0.0
0.27837217,-0.06779711,0.009769904,0.0,0.0
0.32215798,-0.13668045,0.15356898,0.0,0.0
0.15646714,0.039914947,-0.060575712,0.0,0.0
-0.18983115,-0.0047212504,-0.14591162,0.0,0.0
0.731071,-0.095733404,-0.0070597725,0.0,0.0
0.08767601,-0.050797965,-0.07966961,0.0,0.0
-0.39958495,-0.034281317,0.0050143246,0.0,0.0
-0.0968436,-0.12562154,0.020363139,0.0,0.0
0.38687512,-0.041759238,-0.14835961,0.0,0.0
0.35107327,-0.09458589,0.14882162,0.0,0.0
-0.5995277,-0.2450186,-0.09164547,0.0,0.0
-0.2445815,0.067038365,0.10957282,0.0,0.0
0.11499147,-0.01572847,-0.08045642,0.0,0.0
0.2561375,0.011701008,-0.09601739,0.0,0.0
0.5418425,-0.023693025,0.038808074,0.0,0.0
-0.29223585,0.04888222,-0.14197703,0.0,0.0
0.07546911,-0.11677741,0.11776697,0.0,0.0
-0.52243656,-0.1588241,-0.093624175,0.0,0.0
0.33943018,0.35133004,0.012934729,0.0,0.0
0.5683951,0.20208684,-0.056559913,0.0,0.0
0.022183621,-0.2529572,0.3596761,0.0,0.0
0.13306496,0.08643178,-0.1318603,0.0,0.0
0.46177658,0.009011139,-0.13737752,0.0,0.0
0.05001741,0.33616608,-0.02531546,0.0,0.0
-0.3009916,0.12805383,-0.027067408,0.0,0.0
0.053514104,0.021119498,-0.060520954,0.0,0.0
0.74099094,-0.15200633,-0.0732945,0.0,0.0
-0.1533656,0.051281895,-0.066470765,0.0,0.0
0.69907796,-0.084968284,-0.06675753,0.0,0.0
0.5793633,-0.017014476,0.12644038,0.0,0.0
-0.008571361,-0.27250206,0.19447644,0.0,0.0
0.1315878,-0.23580252,0.24125591,0.0,0.0
0.1763654,0.04503748,-0.1049121,0.0,0.0
0.013488551,0.078270614,-0.06822274,0.0,0.0
-0.28507566,-0.18446822,0.13663357,0.0,0.0
-0.44758388,0.09118657,-0.0345705,0.0,0.0
0.5166568,0.343245,-0.02568204,0.0,0.0
-0.41148326,0.30004418,-0.08213963,0.0,0.0
-0.20807837,-0.11565897,-0.1062926,0.0,0.0
-0.25772333,-0.060191024,0.025761435,0.0,0.0
0.36943394,0.04226865,-0.026439765,0.0,0.0
-0.06312762,0.09846288,0.09776104,0.0,0.0
-0.6538712,-0.15906394,0.026788248,0.0,0.0
-0.8444738,-0.04194886,-0.1133264,0.0,0.0
0.3340035,0.04125689,-0.14409919,0.0,0.0
0.10253292,0.24948663,-0.044835076,0.0,0.0
-0.056795496,-0.07813316,0.0071705156,0.0,0.0
0.6354774,-0.20643014,-0.012180956,0.0,0.0
0.52566254,-0.013455891,-0.04327482,0.0,0.0
0.18409431,-0.14965943,0.024041776,0.0,0.0
0.45217127,-0.2666017,0.14413205,0.0,0.0
0.68695986,-0.1826381,0.11382027,0.0,0.0
-0.058880255,0.088522,-0.114252344,0.0,0.0
0.23550709,0.11002312,-0.13508166,0.0,0.0
-0.77125084,-0.15260914,-0.10727384,0.0,0.0
0.2323407,-0.09899159,0.16649288,0.0,0.0
-0.30271268,0.22409968,-0.078508854,0.0,0.0
-0.39585766,0.09684995,-0.07577319,0.0,0.0
-0.47861993,-0.10927305,0.06514344,0.0,0.0
-0.17686623,-0.049052708,0.21786721,0.0,0.0
-0.46328527,0.0071805846,-0.09259381,0.0,0.0
0.00071202614,-0.017799195,-0.0079653775,0.0,0.0
-0.084400475,-0.14871684,-0.010786839,0.0,0.0
0.3011588,-0.13551772,0.19112271,0.0,0.0
-0.2554912,-0.094694056,0.14241682,0.0,0.0
-0.24606057,0.16786928,0.078799635,0.0,0.0
-0.3418089,0.1494344,0.042318467,0.0,0.0
0.734448,-0.14902338,0.16071303,0.0,0.0
0.42037788,-0.23454137,0.16599123,0.0,0.0
0.8617163,-0.09941778,0.16934177,0.0,0.0
-0.13106859,-0.052752305,0.043107335,0.0,0.0
-0.26935166,0.02159879,-0.10824138,0.0,0.0
0.10902763,-0.055487297,-0.14854293,0.0,0.0
0.48614246,0.015437956,-0.10791099,0.0,0.0
0.14963652,0.12140004,-0.044917196,0.0,0.0
-0.2775582,-0.16040269,0.042366542,0.0,0.0
0.2320132,0.14786105,-0.0063656378,0.0,0.0
-0.52962583,-0.18499352,-0.14421687,0.0,0.0
0.23276456,0.090452716,-0.06223557,0.0,0.0
0.513326,-0.013640283,0.04137954,0.0,0.0
-0.1835372,-0.090600476,0.1813279,0.0,0.0
0.7233751,-0.082546175,0.008563501,0.0,0.0
-0.1864615,-0.10212467,-0.083576664,0.0,0.0
-0.76362926,-0.12661749,-0.12178282,0.0,0.0
0.13593087,-0.033332903,-0.114343055,0.0,0.0
-0.07859358,-0.08725449,0.0034752553,0.0,0.0
0.60981286,0.014417518,-0.062737025,0.0,0.0
-0.5941809,-0.20796071,0.14832644,0.0,0.0
-0.64157397,0.14553405,-0.107533135,0.0,0.0
-0.039711356,-0.055192854,0.18666285,0.0,0.0
-0.32737815,0.0011207305,-0.036809072,0.0,0.0
0.28451166,0.09833676,-0.10178279,0.0,0.0
0.36035052,0.07614393,-0.10928708,0.0,0.0
0.24388595,-0.09302382,-0.13980089,0.0,0.0
-0.18352532,-0.22201355,-0.019935623,0.0,0.0
0.39111665,0.07881828,-0.1642109,0.0,0.0
-0.2978671,0.062365297,-0.025974512,0.0,0.0
0.4563703,-0.14084704,-0.111779824,0.0,0.0
0.5516612,-0.12638971,0.120364174,0.0,0.0
0.5934477,0.5324779,-0.16450661,0.0,0.0
0.45294398,-0.14095122,0.15736559,0.0,0.0
0.50974405,-0.034071233,-0.113090284,0.0,0.0
0.63456386,-0.21828514,0.12850073,0.0,0.0
-0.27867475,-0.17867133,-0.089825705,0.0,0.0
-0.09529534,0.031414162,-0.06048717,0.0,0.0
0.24095847,-0.10523478,-0.15366185,0.0,0.0
-0.6613287,0.011167949,0.021440022,0.0,0.0
0.4029304,-0.15713736,0.09096966,0.0,0.0
-0.12949665,0.09350888,0.1657856,0.0,0.0
-0.76403886,-0.0075156596,-0.11111882,0.0,0.0
-0.68592614,-0.06855335,0.009335972,0.0,0.0
0.34222612,0.21005146,-0.008477734,0.0,0.0
0.43731347,0.07468079,-0.04824345,0.0,0.0
-0.19497012,0.006838913,0.03126529,0.0,0.0
0.5579077,-0.13663642,0.009605411,0.0,0.0
0.3359473,-0.12062647,0.09573691,0.0,0.0
-0.06852903,0.15687546,-0.08644101,0.0,0.0
-0.673529,-0.10102248,-0.04676267,0.0,0.0
0.6464516,0.029967519,-0.11873205,0.0,0.0
-0.8293969,0.030099368,-0.05030404,0.0,0.0
0.15958036,-0.029631022,0.021061823,0.0,0.0
-0.023265352,-0.0064908196,0.17230785,0.0,0.0
0.5379089,-0.026025346,-0.15640338,0.0,0.0
0.37223324,-0.17167018,0.104264736,0.0,0.0
-0.36959028,0.07196348,-0.0047841966,0.0,0.0
0.4518793,0.020845091,-0.13586721,0.0,0.0
0.49471024,0.09802253,0.08951526,0.0,0.0
0.48245203,0.26402527,0.05490963,0.0,0.0
-0.3496526,-0.26358134,0.23035245,0.0,0.0
0.5957666,-0.19500175,-0.028084854,0.0,0.0
0.18760683,0.19771151,-0.1087959,0.0,0.0
-0.52681005,-0.0744939,0.0074019544,0.0,0.0
0.32120267,-0.24622507,0.1766342,0.0,0.0
0.06378746,-0.066779524,-0.015390675,0.0,0.0
0.034013167,-0.040646803,-0.08275611,0.0,0.0
0.54288846,-0.09210187,0.19243994,0.0,0.0
-0.6960334,-0.015779762,-0.07187783,0.0,0.0
0.88693506,-0.08904863,-0.012503134,0.0,0.0
-0.6582886,-0.13473423,0.11167256,0.0,0.0
0.040291987,-0.017757952,-0.084756576,0.0,0.0
0.23857544,-0.12202544,-0.13895725,0.0,0.0
-0.22218436,0.16381106,-0.028967278,0.0,0.0
0.7137125,-0.11588688,-0.15589942,0.0,0.0
-0.049568284,-0.18390048,0.12648556,0.0,0.0
0.81507343,-0.32320702,0.05880498,0.0,0.0
0.44390985,-0.095374614,-0.065409094,0.0,0.0
-0.41710433,0.048165184,-0.019928062,0.0,0.0
0.036075607,0.042681158,0.022297317,0.0,0.0
-0.710702,-0.043746892,-0.099108964,0.0,0.0
0.08950938,0.08022229,-0.15677825,0.0,0.0
0.17899944,-0.03758019,-0.15253724,0.0,0.0
-0.15380956,-0.007620039,0.002355564,0.0,0.0
-0.69567746,0.25631464,-0.024878703,0.0,0.0
-0.50177556,-0.24805622,0.061308645,0.0,0.0
0.74449724,-0.13421926,-0.07324675,0.0,0.0
-0.5406971,-0.22475156,0.24864718,0.0,0.0
0.45206818,-0.14781553,-0.1326574,0.0,0.0
-0.76705796,-0.13158917,-0.12369241,0.0,0.0
-0.313476,0.26103324,0.027929574,0.0,0.0
0.045486234,0.17378144,-0.06367075,0.0,0.0
0.73225504,-0.16445665,-0.085125335,0.0,0.0
0.18988773,-0.36401415,0.06705261,0.0,0.0
0.038053233,-0.15393043,0.108557016,0.0,0.0
-0.2802134,-0.10629963,0.17091726,0.0,0.0
-0.4269363,-0.0566391,0.0071247634,0.0,0.0
0.17513853,-0.030098375,-0.100975916,0.0,0.0
-0.15728243,0.040792465,-0.09182327,0.0,0.0
0.16288303,0.05524658,0.0059103156,0.0,0.0
0.61333466,-0.23734014,0.2036402,0.0,0.0
0.37383977,-0.23473541,0.14281212,0.0,0.0
-0.17851354,-0.12091152,0.076128066,0.0,0.0
-0.24827202,-0.11631659,0.17704116,0.0,0.0
0.56516814,-0.058644168,-0.12738357,0.0,0.0
-0.072046414,0.07818794,-0.09031985,0.0,0.0
-0.121467896,-0.022541745,-0.020220041,0.0,0.0
0.6348414,-0.11073218,0.18886523,0.0,0.0
-0.14864053,-0.15738152,0.13862577,0.0,0.0
-0.27238756,-0.13969964,-0.1257152,0.0,0.0
0.20378664,-0.062937014,-0.14085169,0.0,0.0
-0.83321273,-0.1957596,-0.07683113,0.0,0.0
-0.27742007,-0.06619351,0.05605636,0.0,0.0
-0.22500603,-0.0715445,0.09713329,0.0,0.0
-0.20802936,-0.16973983,-0.16379601,0.0,0.0
0.6131008,0.44162905,0.12427796,0.0,0.0
0.13789353,-0.059819404,0.01653372,0.0,0.0
-0.12791605,-0.009019827,-0.12575619,0.0,0.0
-0.77491564,0.048148114,-0.092216544,0.0,0.0
-0.006631094,0.13773921,-0.11983451,0.0,0.0
-0.57554054,-0.10604335,0.042637393,0.0,0.0
0.34706932,0.021886144,0.030779464,0.0,0.0
0.24615528,-0.20038886,-0.09919947,0.0,0.0
0.6066785,-0.17657779,0.18202637,0.0,0.0
0.70640194,-0.17967026,-0.02196524,0.0,0.0
0.057080083,-0.0010812088,-0.11695526,0.0,0.0
-0.18076602,-0.072479956,0.229239,0.0,0.0
0.06679799,-0.2633454,0.047352664,0.0,0.0
0.53880006,-0.019127928,-0.12009353,0.0,0.0
0.051208906,0.037522987,-0.08757116,0.0,0.0
0.34205097,-0.079282306,0.1573389,0.0,0.0
-0.014607294,0.06925754,-0.19575678,0.0,0.0
0.24616848,-0.16141929,0.1872547,0.0,0.0
0.3919107,0.20195508,-0.041000154,0.0,0.0
-0.27477592,-0.166083,0.10230516,0.0,0.0
0.11663109,-0.0018030825,0.03161991,0.0,0.0
0.06876648,0.24911156,-0.017207775,0.0,0.0
-0.74084127,0.029958962,0.04838864,0.0,0.0
-0.23200971,0.2115893,-0.11293932,0.0,0.0
-0.16544586,-0.266425,0.2318479,0.0,0.0
-0.50953907,-0.12176842,-0.04828275,0.0,0.0
0.5040542,0.19019361,-0.08430528,0.0,0.0
0.69194764,-0.121528454,-0.044593666,0.0,0.0
-0.034133743,0.024056941,0.057251044,0.0,0.0
-0.1346442,0.1453365,-0.05704689,0.0,0.0
-0.8056192,-0.18295057,-0.16863944,0.0,0.0
-0.5608065,-0.2263186,-0.02041817,0.0,0.0
-0.23174702,-0.012906903,-0.036202975,0.0,0.0
-0.70796984,0.0026287348,-0.10230531,0.0,0.0
-0.29022884,-0.1911446,0.15556069,0.0,0.0
-0.38480422,-0.27411798,0.025484785,0.0,0.0
0.28878143,-0.11202461,-0.05972083,0.0,0.0
-0.50307864,-0.25109527,0.010034121,0.0,0.0
0.5066156,0.02461326,-0.030552195,0.0,0.0
0.71417105,-0.026653763,0.009270001,0.0,0.0
0.5336895,-0.1780784,-0.0084785,0.0,0.0
-0.32589146,0.18757562,-0.09830744,0.0,0.0
0.20839761,-0.17714837,0.015285512,0.0,0.0
-0.20508742,0.061952267,-0.13900487,0.0,0.0
0.11930695,0.0054243975,0.054040596,0.0,0.0
0.47980747,0.0476331,-0.08173485,0.0,0.0
0.52424985,-0.0930584,-0.0014439021,0.0,0.0
0.21845414,0.10637206,-0.036518067,0.0,0.0
0.60447353,-0.03054071,0.05724465,0.0,0.0
-0.15686163,-0.14001025,0.16478215,0.0,0.0
-0.012898143,0.13920616,-0.15735541,0.0,0.0
0.68442017,0.48329008,-0.049358387,0.0,0.0
-0.24442509,-0.108816564,-0.063515685,0.0,0.0
-0.35859916,-0.07913812,-0.044055212,0.0,0.0
0.052631937,-0.18732895,0.1442171,0.0,0.0
-0.34013718,0.07090377,-0.103805274,0.0,0.0
0.115913376,0.14499724,-0.13848832,0.0,0.0
0.56449354,0.3304522,-0.1037575,0.0,0.0
0.73239034,0.057017483,-0.05375686,0.0,0.0
-0.72374594,0.31423828,-0.09231093,0.0,0.0
0.86518,-0.09499938,0.062421132,0.0,0.0
0.27089298,-0.14762783,0.20654032,0.0,0.0
-0.6459163,0.03406693,-0.12724996,0.0,0.0
-0.17668614,0.2090313,-0.091750644,0.0,0.0
0.77819914,-0.14637318,0.14177601,0.0,0.0
0.3205076,0.33517927,-0.13928647,0.0,0.0
0.62385523,-0.07688723,0.04302728,0.0,0.0
-0.5968682,-0.19565669,0.19386473,0.0,0.0
0.3414401,-0.21229336,0.37270728,0.0,0.0
-0.068356276,-0.06737306,-0.16543344,0.0,0.0
0.017214369,-0.19658172,0.22483651,0.0,0.0
-0.6936663,0.00019992376,-0.15137716,0.0,0.0
-0.14564475,-0.08725506,-0.007924489,0.0,0.0
0.38622636,-0.019266954,0.019336585,0.0,0.0
0.32337117,0.049193103,-0.07989202,0.0,0.0
-0.08853152,-0.0843858,-0.13642307,0.0,0.0
0.31062528,-0.0062186853,0.06102692,0.0,0.0
0.868541,-0.25692636,-0.19068125,0.0,0.0
-0.14228974,-0.2281008,0.3629006,0.0,0.0
-0.4725179,-0.14797914,-0.057725918,0.0,0.0
0.27653632,0.28706637,-0.03525366,0.0,0.0
0.06332108,-0.29729816,0.21634617,0.0,0.0
-0.18888739,-0.2827605,-0.02971777,0.0,0.0
0.46614712,-0.04823054,-0.18030988,0.0,0.0
0.3692717,0.40856612,-0.111168325,0.0,0.0
-0.52315164,0.056208566,-0.0050813816,0.0,0.0
0.6797013,-0.044248626,-0.12894256,0.0,0.0
-0.3154755,-0.21807297,-0.09341682,0.0,0.0
-0.4265935,-0.11945538,0.11252129,0.0,0.0
0.74617314,0.002898801,-0.04818889,0.0,0.0
-0.18119384,0.026533293,0.031391248,0.0,0.0
0.020761043,-0.08469061,0.018876197,0.0,0.0
-0.40155604,-0.19263521,0.09271868,0.0,0.0
-0.49408832,-0.017317727,0.015659489,0.0,0.0
0.011432378,0.21254435,-0.04562201,0.0,0.0
0.01883375,0.10043229,0.044388648,0.0,0.0
0.4875029,0.24390452,-0.1036064,0.0,0.0
-0.36160764,0.048176795,0.002850193,0.0,0.0
0.1318325,-0.1398927,0.22869064,0.0,0.0
-0.01107555,-0.23525995,0.1370249,0.0,0.0
-0.8553315,0.09355432,-0.05576507,0.0,0.0
-0.04275673,0.011172578,0.09875985,0.0,0.0
-0.28483963,-0.1420348,0.12397877,0.0,0.0
0.045917835,-0.15315615,-0.060488693,0.0,0.0
-0.46521416,0.095669255,-0.14364482,0.0,0.0
0.35992554,-0.2795266,-0.045039967,0.0,0.0
-0.17761973,-0.07967478,-0.1282922,0.0,0.0
0.5153174,0.35002914,0.08477068,0.0,0.0
0.07224638,-0.162127,0.08778108,0.0,0.0
0.6265231,-0.22298764,0.12730935,0.0,0.0
0.3777941,-0.12241939,0.2084503,0.0,0.0
0.65332437,0.023953797,-0.10649723,0.0,0.0
-0.0032366202,0.16399552,-0.120707445,0.0,0.0
0.3108426,0.220557,-0.10710381,0.0,0.0
-0.6630954,-0.26768443,0.09685381,0.0,0.0
-0.49575686,-0.2732871,0.040708203,0.0,0.0
-0.53331846,-0.15028001,0.16535667,0.0,0.0
-0.34536427,-0.22700064,-0.07953964,0.0,0.0
0.16498494,-0.047049694,0.0073159393,0.0,0.0
0.7536302,-0.011621664,-0.031541247,0.0,0.0
-0.6868018,0.19225772,0.04111454,0.0,0.0
-0.6314756,-0.019696724,0.0277117,0.0,0.0
0.010676351,0.10521646,-0.0012852433,0.0,0.0
0.18324603,-0.14764018,0.15137926,0.0,0.0
-0.42686108,0.017456312,-0.11790704,0.0,0.0
0.15980752,0.4936566,-0.057716366,0.0,0.0
-0.78972054,-0.18209025,-0.015143355,0.0,0.0
0.027612993,0.22881004,-0.08358561,0.0,0.0
-0.051831793,0.18094541,-0.0670731,0.0,0.0
0.08902238,-0.048680726,-0.13062015,0.0,0.0
-0.2589096,-0.29079345,-0.10724152,0.0,0.0
0.18866712,-0.101447925,0.12312958,0.0,0.0
-0.60049343,-0.11584463,-0.07212713,0.0,0.0
0.40897903,0.39716944,0.02662456,0.0,0.0
0.04339218,-0.14770089,0.13910265,0.0,0.0
0.1500337,0.3361583,-0.12691547,0.0,0.0
-0.04874644,-0.0789648,0.0766118,0.0,0.0
0.41581383,-0.044884365,0.11082948,0.0,0.0
0.69305557,-0.21831165,0.003728516,0.0,0.0
-0.009673443,-0.21828449,0.2691478,0.0,0.0
0.7091947,-0.09847226,0.0847163,0.0,0.0
0.13253638,-0.14753559,0.0034711866,0.0,0.0
0.62837607,0.13033772,-0.0526279,0.0,0.0
-0.31504023,0.05639788,-0.17680945,0.0,0.0
-0.66320616,-0.08154313,0.060378402,0.0,0.0
-0.029347537,-0.030803174,-0.07233483,0.0,0.0
-0.42979163,0.019952143,-0.07984383,0.0,0.0
-0.7150925,-0.062534235,0.0858059,0.0,0.0
0.6910529,-0.0484221,0.071272545,0.0,0.0
0.5687193,-0.21559493,0.0564944,0.0,0.0
0.31040487,0.018106222,-0.07605289,0.0,0.0
0.040024254,-0.046919964,0.08414229,0.0,0.0
-0.132958,-0.18668438,0.32285023,0.0,0.0
0.46026567,0.057625756,-0.033664003,0.0,0.0
-0.05269608,-0.054385386,0.08682893,0.0,0.0
0.25048178,0.016123766,-0.09633147,0.0,0.0
-0.3887158,-0.028121654,-0.13453491,0.0,0.0
0.738271,0.55529076,-0.042835396,0.0,0.0
0.2815444,-0.06421332,0.0018179232,0.0,0.0
-0.19429542,0.17280617,0.0161849,0.0,0.0
0.3413736,0.17775732,-0.06677156,0.0,0.0
-0.43043303,0.13318841,-0.09763991,0.0,0.0
0.03425191,0.18390958,-0.11766107,0.0,0.0
0.5107202,-0.10952924,-0.100278,0.0,0.0
-0.29934403,0.03173751,-0.14702676,0.0,0.0
0.34392676,-0.059764598,-0.02549105,0.0,0.0
0.55312955,0.13952547,-0.082554154,0.0,0.0
0.08304904,-0.14194986,-0.10769493,0.0,0.0
0.12722704,0.0046828147,-0.031010486,0.0,0.0
0.48990056,0.123476766,-0.17458978,0.0,0.0
-0.50954926,-0.07364131,0.039511822,0.0,0.0
-0.06162673,-0.23371579,0.21250793,0.0,0.0
0.7556497,0.102753356,-0.19282627,0.0,0.0
0.009944205,-0.015814703,0.07265626,0.0,0.0
-0.60537076,-0.078154534,0.108383045,0.0,0.0
-0.19507585,-0.027129954,-0.068895526,0.0,0.0
0.59729356,-0.14303008,0.100367986,0.0,0.0
0.29931447,-0.044287577,-0.009916507,0.0,0.0
0.60881233,0.34272897,-0.051803686,0.0,0.0
-0.8301068,-0.18924943,0.16719137,0.0,0.0
0.39915216,0.23458558,-0.030593278,0.0,0.0
-0.35347298,0.02771562,0.023469843,0.0,0.0
-0.31845185,0.19985099,-0.102499574,0.0,0.0
0.24869587,-0.049377076,0.25786382,0.0,0.0
-0.10056096,0.01576144,0.12497252,0.0,0.0
0.54612225,-0.2066213,0.036799103,0.0,0.0
-0.45732564,0.17765957,-0.12821054,0.0,0.0
0.0757894,-0.21450613,0.46890488,0.0,0.0
-0.28162888,0.24392112,-0.11862022,0.0,0.0
0.083746366,-0.013413397,-0.08150755,0.0,0.0
-0.04859525,0.13505678,-0.08255758,0.0,0.0
0.062801056,-0.2630828,0.0008357691,0.0,0.0
-0.27440396,-0.06744139,-0.12368801,0.0,0.0
-0.48693025,-0.09370532,0.014422669,0.0,0.0
-0.21233869,-0.098780185,0.22592859,0.0,0.0
-0.3717886,-0.076181166,-0.08281355,0.0,0.0
-0.18961433,0.10211727,-0.050813537,0.0,0.0
-0.08661778,0.0915587,-0.077649705,0.0,0.0
0.59807324,-0.21353544,0.20646286,0.0,0.0
0.60457927,0.021747565,-0.07673848,0.0,0.0
-0.569383,-0.0980279,-0.009639064,0.0,0.0
0.03521873,-0.13547018,0.16863355,0.0,0.0
0.4652826,-0.1041849,-0.00019031491,0.0,0.0
0.6983394,-0.06878167,0.033159275,0.0,0.0
0.15839283,-0.0062898216,0.13951194,0.0,0.0
-0.40645167,-0.0395314,0.091320924,0.0,0.0
0.6474808,-0.20899105,-0.00432209,0.0,0.0
0.07900916,-0.1508493,0.1628296,0.0,0.0
0.24177048,-0.18745106,-0.15441605,0.0,0.0
-0.8667276,-0.019656619,-0.10628865,0.0,0.0
0.21351975,0.2284202,0.07862303,0.0,0.0
-0.18920839,-0.23339076,0.39597243,0.0,0.0
0.7092996,0.092888795,-0.12874067,0.0,0.0
0.20603138,0.26215187,-0.08759822,0.0,0.0
0.43371397,-0.0069775903,-0.13117117,0.0,0.0
-0.70152247,-0.14348958,0.062393628,0.0,0.0
-0.74566895,0.27243814,-0.12647554,0.0,0.0
-0.15204723,0.5033432,0.20039079,0.0,0.0
0.40014002,0.39408794,-0.09294146,0.0,0.0
-0.2458255,-0.16525489,0.23885623,0.0,0.0
-0.28407833,-0.13237038,0.15695828,0.0,0.0
0.5966944,-0.059210412,-0.13427198,0.0,0.0
-0.7808252,-0.03886631,-0.033496942,0.0,0.0
0.20175329,-0.032847434,0.0786448,0.0,0.0
-0.72129923,-0.09269816,-0.15761226,0.0,0.0
0.6082549,-0.1152962,0.01006269,0.0,0.0
-0.7142711,-0.066146806,-0.076808244,0.0,0.0
0.29602993,0.26505715,-0.03737899,0.0,0.0
0.068818696,0.033572063,-0.14170371,0.0,0.0
0.25968373,-0.10117328,-0.14344794,0.0,0.0
0.70950025,-0.19428971,0.060729034,0.0,0.0
-0.6210805,-0.15308055,0.112067714,0.0,0.0
0.589811,-0.09534131,0.12684347,0.0,0.0
-0.22862186,0.356358,-0.11144362,0.0,0.0
0.057737406,-0.22650777,0.08656833,0.0,0.0
-0.63969094,0.10163403,-0.13315792,0.0,0.0
0.021299187,-0.19542518,0.111171305,0.0,0.0
-0.56156814,0.26070347,0.0019658566,0.0,0.0
0.11239144,-0.19772385,0.0027674558,0.0,0.0
0.41207814,0.017313983,0.0066975765,0.0,0.0
0.41813993,0.17828134,-0.17511313,0.0,0.0
0.52758884,-0.097651385,-0.15114291,0.0,0.0
0.3566969,0.022063708,-0.13776077,0.0,0.0
0.5212252,0.051574033,-0.16991462,0.0,0.0
0.049234726,0.03941445,-0.109863706,0.0,0.0
0.23332207,-0.23769268,-0.010926594,0.0,0.0
-0.62844276,0.047045056,-0.070188306,0.0,0.0
-0.62197423,-0.040966015,0.0032563675,0.0,0.0
0.39124307,-0.05329117,-0.072106354,0.0,0.0
-0.2520107,-0.121783085,0.06784272,0.0,0.0
-0.8812829,-0.16190735,-0.1320304,0.0,0.0
-0.4911994,-0.08034702,0.09404758,0.0,0.0
0.18945473,0.08195778,-0.13609533,0.0,0.0
-0.104862526,-0.03683317,-0.019390766,0.0,0.0
-0.5123393,-0.30093607,0.07400491,0.0,0.0
-0.67673975,-0.16931649,-0.18281944,0.0,0.0
-0.016504992,-0.25567216,0.0749583,0.0,0.0
0.45348275,-0.015702263,-0.18042585,0.0,0.0
0.057145614,0.07439364,-0.1332183,0.0,0.0
0.14703996,-0.15083025,0.06829556,0.0,0.0
-0.13635448,-0.049872775,0.14427018,0.0,0.0
-0.56175953,-0.2515537,0.007995785,0.0,0.0
-0.10172655,-0.3148478,0.071317896,0.0,0.0
-0.5327024,0.11808255,-0.09742445,0.0,0.0
-0.3886091,-0.04923043,0.022315966,0.0,0.0
-0.099354774,-0.069344014,0.15876375,0.0,0.0
0.960958,-0.27197307,0.2788248,0.0,0.0
0.3150555,0.016512135,-0.14876191,0.0,0.0
0.41952923,0.014648883,-0.15745546,0.0,0.0
-0.07119156,-0.03825811,-0.14942652,0.0,0.0
0.037813835,0.028390555,-0.04662497,0.0,0.0
0.17940572,0.035721518,-0.14034534,0.0,0.0
-0.12978221,0.053775813,-0.07904879,0.0,0.0
-0.57130426,-0.19114503,-0.06799915,0.0,0.0
-0.16128749,-0.07629334,0.09270467,0.0,0.0
-0.09687581,-0.029298607,-0.014687909,0.0,0.0
-0.9279557,0.00088269653,-0.15866995,0.0,0.0
0.698591,0.32402244,-0.09560197,0.0,0.0
0.6998908,-0.0031271789,-0.107151486,0.0,0.0
-0.502042,0.6617725,-0.117097646,0.0,0.0
-0.10104163,0.063056834,-0.13513494,0.0,0.0
0.28314817,-0.24530919,-0.05824062,0.0,0.0
0.20373802,-0.31928742,0.052945282,0.0,0.0
-0.25575712,0.3304771,-0.090589955,0.0,0.0
0.0519825,-0.14074515,0.178719,0.0,0.0
-0.65489316,0.016651014,-0.12613481,0.0,0.0
-0.41971537,-0.06136351,-0.090310484,0.0,0.0
-0.27554154,0.08226216,-0.092815734,0.0,0.0
-0.0923869,-0.14335145,0.21465385,0.0,0.0
0.03347033,0.059019994,-0.07001377,0.0,0.0
0.0982838,-0.22514682,0.15319453,0.0,0.0
-0.8576678,0.19412754,-0.11215477,0.0,0.0
0.055323254,-0.17420046,0.16673765,0.0,0.0
0.13370009,-0.22778153,0.07594347,0.0,0.0
-0.07970886,-0.09340145,0.013982721,0.0,0.0
-0.64040875,0.10964207,-0.06725899,0.0,0.0
0.31726614,0.1866997,-0.3535871,0.0,0.0
0.74543786,-0.12701346,-0.022644632,0.0,0.0
-0.9524789,0.020438708,-0.016835144,0.0,0.0
-0.40958735,0.052839972,-0.11900025,0.0,0.0
-0.67156607,0.22348954,-0.15250441,0.0,0.0
0.5969143,0.07780191,-0.012947719,0.0,0.0
0.7774135,0.022926666,-0.11757405,0.0,0.0
-0.057893388,0.015418023,0.032613806,0.0,0.0
0.44474897,-0.013138293,0.030103736,0.0,0.0
-0.081653275,0.111635186,0.06591189,0.0,0.0
0.58083683,0.24336016,-0.03442878,0.0,0.0
0.22791429,-0.19131044,0.096334726,0.0,0.0
0.37160468,0.050661083,-0.030657113,0.0,0.0
-0.6464236,0.045442358,0.029635392,0.0,0.0
-0.110776715,0.06302055,-0.08106194,0.0,0.0
-0.7078722,-0.1485076,-0.068902165,0.0,0.0
0.8215666,0.18230362,-0.08649844,0.0,0.0
0.60130787,-0.05719299,-0.02296845,0.0,0.0
-0.597647,-0.035097096,0.015220499,0.0,0.0
-0.8908381,-0.04965069,-0.0325919,0.0,0.0
-0.53791445,-0.21132414,0.09960792,0.0,0.0
0.22521956,-0.0012133147,0.06976952,0.0,0.0
0.26491225,-0.09724934,0.08414693,0.0,0.0
0.58736366,0.04775874,-0.14320542,0.0,0.0
0.75881225,-0.11632583,-0.032471046,0.0,0.0
0.45947164,-0.28971225,0.1345133,0.0,0.0
0.35867098,0.44730157,0.14161745,0.0,0.0
0.23632634,0.2596414,0.09150458,0.0,0.0
0.073501736,-0.0141859,0.014237288,0.0,0.0
-0.6570988,0.005178108,-0.094546944,0.0,0.0
0.3004202,-0.17005622,-0.0707488,0.0,0.0
-0.060571264,-0.00053593214,0.06818016,0.0,0.0
-0.111603275,0.02502349,0.097031206,0.0,0.0
0.40837994,-0.042417742,-0.16739605,0.0,0.0
-0.50248224,-0.50862277,-0.13497171,0.0,0.0
-0.079473644,0.2940182,0.032034494,0.0,0.0
0.4251109,0.019108282,-0.04164022,0.0,0.0
0.0807922,0.038122788,-0.11538481,0.0,0.0
-0.22719446,0.2250902,-0.071610644,0.0,0.0
-0.225191,0.16906646,-0.042186785,0.0,0.0
0.38936865,-0.089105636,0.20294729,0.0,0.0
0.69305223,0.25379875,-0.1214453,0.0,0.0
0.24755211,0.13747548,-0.0523948,0.0,0.0
-0.008503497,0.054948494,-0.071372844,0.0,0.0
-0.8255607,-0.09574875,-0.12818581,0.0,0.0
-0.39106736,0.081478596,-0.1401377,0.0,0.0
0.0210626,0.11147765,-0.12051443,0.0,0.0
-0.23091882,-0.045489706,0.18673177,0.0,0.0
-0.82242006,-0.15169509,-0.11519237,0.0,0.0
0.60125035,-0.1863579,0.15652731,0.0,0.0
0.26378864,-0.04779509,0.0011619269,0.0,0.0
0.9080103,-0.12490742,0.15710552,0.0,0.0
-0.71566635,-0.07914734,0.38876876,0.0,0.0
-0.11621718,-0.2223247,-0.06400136,0.0,0.0
-0.15906438,-0.03543228,-0.040617958,0.0,0.0
0.37483376,0.30868852,-0.045082532,0.0,0.0
-0.73041093,0.13684797,-0.04587906,0.0,0.0
0.3363476,0.3134331,0.005427561,0.0,0.0
0.542672,0.19473724,-0.105695605,0.0,0.0
-0.25660655,-0.29494467,0.037051205,0.0,0.0
0.16743234,-0.21032995,0.24798886,0.0,0.0
-0.21780033,-0.13559295,0.14163546,0.0,0.0
-0.0351878,-0.15081345,0.21637438,0.0,0.0
0.5154915,-0.10336182,-0.15336141,0.0,0.0
0.17905332,0.021968199,-0.090646185,0.0,0.0
-0.039639406,-0.21411556,0.20005365,0.0,0.0
-0.10311811,-0.253234,0.20973505,0.0,0.0
0.042899065,-0.218824,0.19265999,0.0,0.0
-0.37857464,-0.23745562,0.015777597,0.0,0.0
-0.639615,-0.08981281,0.090219274,0.0,0.0
0.41169178,0.21068472,-0.06603839,0.0,0.0
0.7446022,-0.015331395,-0.025124885,0.0,0.0
-0.5422937,0.0019021123,0.027481204,0.0,0.0
-0.68769246,-0.00965665,-0.038008094,0.0,0.0
-0.20469292,-0.011122789,0.042217158,0.0,0.0
-0.3497375,0.102675095,-0.0118557345,0.0,0.0
-0.11152255,-0.33818066,0.073743485,0.0,0.0
-0.40913916,-0.08150353,0.106685005,0.0,0.0
0.28169447,-0.04870199,-0.14317405,0.0,0.0
-0.4850213,0.10572719,-0.16370636,0.0,0.0
0.75033635,0.063169375,-0.075953886,0.0,0.0
0.24057628,-0.18058546,0.29271126,0.0,0.0
0.5603831,-0.061116196,-0.07807065,0.0,0.0
0.5718578,-0.25449458,-0.033932872,0.0,0.0
0.6308181,0.37668195,-0.02856272,0.0,0.0
-0.57780147,-0.1457892,-0.07534125,0.0,0.0
-0.4433431,0.12590633,-0.079319075,0.0,0.0
-0.6171552,-0.02381345,0.01932532,0.0,0.0
-0.23616743,-0.07583311,-0.13265944,0.0,0.0
0.13795105,0.08756571,-0.087485045,0.0,0.0
0.33725134,0.18203217,-0.12221676,0.0,0.0
-0.4294765,-0.22565813,0.25842395,0.0,0.0
0.21696596,-0.03891183,-0.07019657,0.0,0.0
0.3486356,0.10372994,-0.053805396,0.0,0.0
0.41778445,-0.06655856,0.017022284,0.0,0.0
0.43386495,-0.14011161,0.09129193,0.0,0.0
0.5198317,0.07736376,-0.057076994,0.0,0.0
0.16592926,0.10743667,-0.06388621,0.0,0.0
-0.12814933,-0.20397168,0.18361956,0.0,0.0
-0.08242478,0.036710545,-0.07986664,0.0,0.0
0.058121867,0.05557195,-0.098055094,0.0,0.0
0.52262443,-0.01896837,0.04018591,0.0,0.0
0.0038661081,-0.26141304,0.088823244,0.0,0.0
-0.11292061,0.018521015,-0.1102862,0.0,0.0
0.39573243,0.09631748,-0.16239606,0.0,0.0
0.3345117,0.39342993,-0.13130014,0.0,0.0
0.46164697,-0.05641154,-0.015376183,0.0,0.0
-0.3223012,-0.15224841,0.22227809,0.0,0.0
0.59804815,-0.13267672,-0.2040656,0.0,0.0
-0.42866948,-0.18330315,0.15772587,0.0,0.0
-0.82885134,-0.25128064,0.14011368,0.0,0.0
-0.81583744,-0.118096836,-0.003994343,0.0,0.0
-0.46728057,-0.25819236,-0.09450102,0.0,0.0
