x,y,z,f,scl1
0.35347277,-0.103697225,-0.18008482,0.0,0.0
-0.2530455,-0.023401769,0.09260996,0.0,0.0
-0.36347032,-0.12771763,0.09009835,0.0,0.0
-0.31810024,0.051198527,-0.028225593,0.0,0.0
0.74468285,0.39615753,-0.02372148,0.0,0.0
0.052816596,0.18921252,-0.06395994,0.0,0.0
0.007094334,-0.004328914,-0.080976956,0.0,0.0
0.69748014,0.22601065,-0.028826023,0.0,0.0
0.25914654,-0.024224564,-0.0930313,0.0,0.0
0.44240597,-0.0069425353,-0.15638635,0.0,0.0
-0.5859126,0.112932175,-0.057559796,0.0,0.0
0.58745635,-0.0008516155,-0.06775022,0.0,0.0
-0.8436814,-0.1486797,-0.05281807,0.0,0.0
-0.20112158,0.08434603,-0.1365387,0.0,0.0
0.29145983,-0.16480187,0.21475716,0.0,0.0
0.6053046,0.021962611,-0.17225945,0.0,0.0
0.37156594,0.2374176,0.03726756,0.0,0.0
-0.5372211,0.035944358,0.008956773,0.0,0.0
-0.080174275,-0.1892296,0.21133211,0.0,0.0
0.18740062,-0.00785043,-0.04358184,0.0,0.0
0.15723234,-0.15687,-0.06678856,0.0,0.0
0.44801265,0.06554718,-0.031495266,0.0,0.0
-0.40867314,-0.14256293,0.21478517,0.0,0.0
0.27572727,-0.12953946,0.07255275,0.0,0.0
-0.012655718,-0.0073382705,-0.09925423,0.0,0.0
0.08587517,0.055683453,-0.16485243,0.0,0.0
0.013319143,-0.12789126,-0.018802725,0.0,0.0
0.20037939,-0.115508854,0.046410743,0.0,0.0
0.09466391,-0.096668005,-0.00650155,0.0,0.0
-0.51677936,-0.048587333,0.18386923,0.0,0.0
-0.025551267,-0.068380594,-0.18230927,0.0,0.0
-0.09717801,-0.12382409,0.21379547,0.0,0.0
0.28729177,0.048704576,-0.031944692,0.0,0.0
0.073511444,-0.09418402,0.019650055,0.0,0.0
0.03709002,0.11197995,-0.11418115,0.0,0.0
-0.4142572,0.040402114,-0.092219904,0.0,0.0
-0.4493088,0.050041605,-0.11340944,0.0,0.0
0.34498194,-0.207075,0.14094193,0.0,0.0
0.36086786,0.32545552,-0.073209025,0.0,0.0
0.7312784,-0.05291104,-0.030446406,0.0,0.0
-0.15065828,0.057055146,-0.13954741,0.0,0.0
0.28958982,0.098064475,-0.14942618,0.0,0.0
0.23650484,0.04666187,-0.15866637,0.0,0.0
0.32451314,-0.48681048,0.081764914,0.0,0.0
-0.46109247,0.0019419324,-0.14872424,0.0,0.0
-0.5422448,0.1689355,-0.07603158,0.0,0.0
-0.60215926,0.10892538,-0.055867456,0.0,0.0
-0.4418564,0.22082782,-0.10196441,0.0,0.0
-0.15907899,-0.16712914,-0.0786355,0.0,0.0
-0.39509052,-0.06324003,0.0997159,0.0,0.0
-0.70902735,-0.09071249,-0.12916361,0.0,0.0
-0.6613758,0.16659403,-0.08887432,0.0,0.0
-0.3933822,-0.23315404,0.098825246,0.0,0.0
0.44650963,0.0043764426,0.026593251,0.0,0.0
0.23769121,0.11733513,-0.1381143,0.0,0.0
0.2651977,-0.110355906,-0.19655144,0.0,0.0
0.057757054,-0.06147953,-0.14448969,0.0,0.0
-0.18890117,0.08057644,-0.06485752,0.0,0.0
0.30694813,0.029983887,-0.12724052,0.0,0.0
-0.5357517,0.005609639,-0.13621572,0.0,0.0
-0.112596296,0.018746795,0.07334914,0.0,0.0
-0.12757872,0.07082387,0.017051477,0.0,0.0
-0.49920946,0.116466746,0.0779713,0.0,0.0
0.35793638,-0.15823422,0.16324794,0.0,0.0
-0.16861232,-0.19542533,-0.022052051,0.0,0.0
0.5972351,-0.03494918,-0.049403448,0.0,0.0
-0.7045354,-0.1742762,0.09989523,0.0,0.0
0.4950451,0.071441844,-0.08975387,0.0,0.0
0.16649954,0.12110535,-0.11119491,0.0,0.0
0.00321777,-0.21331468,0.20510976,0.0,0.0
0.011835706,-0.040171407,-0.08138576,0.0,0.0
-0.6871075,-0.11605114,0.07580257,0.0,0.0
-0.25091618,-0.09354085,0.3247946,0.0,0.0
0.025518352,-0.21088934,0.16666362,0.0,0.0
0.5301296,0.11900158,-0.106532745,0.0,0.0
0.7250032,-0.13697271,-0.10792613,0.0,0.0
0.11890937,0.050307803,0.014976295,0.0,0.0
-0.5318858,0.13513444,-0.019403026,0.0,0.0
0.21495052,-0.020907924,-0.038140617,0.0,0.0
-0.11854619,-0.08468454,0.035472836,0.0,0.0
0.04517006,-0.060608737,-0.02843788,0.0,0.0
-0.035358056,0.14806256,-0.13551202,0.0,0.0
0.57103086,0.06151389,-0.059726167,0.0,0.0
0.44265276,-0.09329558,0.052812967,0.0,0.0
-0.32879356,-0.0037635947,-0.036234412,0.0,0.0
-0.38828272,-0.1469727,0.12292541,0.0,0.0
0.5454516,0.047522213,-0.11363197,0.0,0.0
0.40315476,-0.21583782,0.16231148,0.0,0.0
0.30036458,-0.004167337,-0.16409104,0.0,0.0
0.35722104,-0.14478518,-0.07894419,0.0,0.0
0.3539487,0.014831879,-0.03459248,0.0,0.0
0.398761,-0.16318724,0.051951446,0.0,0.0
0.26526776,-0.08546782,0.09353128,0.0,0.0
-0.56156176,0.018716885,-0.044026908,0.0,0.0
0.5033104,0.012693682,0.04663901,0.0,0.0
-0.27987608,0.15498166,-0.1303534,0.0,0.0
-0.7702337,-0.015140336,-0.06825326,0.0,0.0
0.4644207,0.0022063167,0.18070345,0.0,0.0
0.54087234,-0.26164693,0.09022004,0.0,0.0
0.23499176,-0.011403486,-0.061107587,0.0,0.0
0.7511789,-0.20850337,-0.037047207,0.0,0.0
-0.4370637,0.38125247,-0.14030035,0.0,0.0
-0.7025699,-0.1998742,-0.038341515,0.0,0.0
-0.56883836,-0.18397623,0.16019544,0.0,0.0
0.7781152,0.35602447,0.16489774,0.0,0.0
0.014973836,0.14741386,0.03476473,0.0,0.0
-0.25293842,-0.07869943,0.03892492,0.0,0.0
-0.58087814,-0.028585538,0.004366408,0.0,0.0
-0.5220975,-0.042178463,-0.14690398,0.0,0.0
-0.02280247,-0.037083264,-0.01706776,0.0,0.0
0.8002246,0.08974894,0.054198027,0.0,0.0
0.30142987,-0.02274956,0.017900128,0.0,0.0
-0.17901427,-0.0017266831,0.0021815298,0.0,0.0
0.25468594,0.01738818,0.5880923,0.0,0.0
-0.010527717,0.079847895,-0.1315079,0.0,0.0
-0.60716504,-0.15620324,0.04818068,0.0,0.0
0.530761,-0.19957149,0.010398199,0.0,0.0
-0.46914777,-0.01319474,-0.019708322,0.0,0.0
0.18585177,-0.18911672,0.25563136,0.0,0.0
-0.52432674,0.13874912,-0.117366694,0.0,0.0
0.6986166,-0.040719554,0.016892266,0.0,0.0
0.84500724,-0.097810924,-0.110759325,0.0,0.0
-0.28764918,-0.03639546,-0.030687837,0.0,0.0
-0.56877464,-0.24241497,0.13911192,0.0,0.0
-0.15228797,0.013538796,-0.14204021,0.0,0.0
0.5953378,-0.099583104,0.15755554,0.0,0.0
0.79056704,-0.059767704,-0.111889705,0.0,0.0
-0.19665444,0.034659278,-0.052925717,0.0,0.0
0.023201969,0.12728947,-0.15362236,0.0,0.0
0.4275206,0.32549298,-0.05255157,0.0,0.0
0.40981105,0.047323834,-0.0049350224,0.0,0.0
0.5921962,-0.13491799,0.1306903,0.0,0.0
-0.41456547,-0.04158663,-0.1290072,0.0,0.0
0.63867253,-0.18556756,0.1716023,0.0,0.0
0.82087934,-0.035603106,-0.103079595,0.0,0.0
-0.72741735,-0.2258764,-0.099263616,0.0,0.0
-0.14906994,0.13901526,0.09089295,0.0,0.0
-0.4484691,-0.18733999,-0.07655402,0.0,0.0
0.75720567,-0.14048241,0.14654183,0.0,0.0
-0.619721,-0.07764589,0.058229614,0.0,0.0
-0.15812822,0.047471724,0.025948003,0.0,0.0
-0.45117489,-0.12598225,0.085748345,0.0,0.0
-0.5255141,-0.10834424,-0.11436987,0.0,0.0
0.23206738,0.17077132,-0.12576567,0.0,0.0
-0.21646996,0.00064424233,-0.1094439,0.0,0.0
0.030886266,-0.09848562,-0.010767631,0.0,0.0
0.74101216,0.44528168,0.10503472,0.0,0.0
0.54397845,0.100178264,-0.1527233,0.0,0.0
0.3740778,-0.12028208,0.2380143,0.0,0.0
-0.27161014,-0.22091556,0.07828334,0.0,0.0
0.32230213,0.0033506304,-0.045665596,0.0,0.0
0.050734244,-0.16521698,0.083262525,0.0,0.0
-0.2586244,-0.14564127,-0.075100586,0.0,0.0
-0.91568345,0.019874422,-0.02661791,0.0,0.0
0.14540145,0.007075988,-0.118991606,0.0,0.0
-0.19215414,0.20124972,-0.095258154,0.0,0.0
-0.18017687,0.21046667,-0.09807887,0.0,0.0
0.06419957,-0.018738728,-0.014437269,0.0,0.0
-0.1181775,-0.09378602,0.12414321,0.0,0.0
0.28938907,0.26838002,-0.05331916,0.0,0.0
0.60038245,0.08545225,-0.14256844,0.0,0.0
0.30009875,0.04332271,-0.029268194,0.0,0.0
-0.17559126,0.2679766,-0.1170167,0.0,0.0
-0.08809626,-0.07153327,0.11435457,0.0,0.0
-0.5197694,-0.14354451,0.06418095,0.0,0.0
-0.50359786,-0.21287367,-0.0818991,0.0,0.0
0.15139158,0.1542261,-0.1986563,0.0,0.0
-0.7873543,-0.08027805,-0.015341115,0.0,0.0
0.1255759,0.10482664,0.033257615,0.0,0.0
0.7133228,-0.10482392,0.0035345703,0.0,0.0
0.24098326,0.07036053,-0.1338788,0.0,0.0
0.39567736,-0.23066245,0.1488246,0.0,0.0
0.06732117,-0.10095336,0.14068377,0.0,0.0
-0.2041644,0.03180126,-0.12894697,0.0,0.0
-0.026150014,0.15000457,0.053588923,0.0,0.0
-0.05696057,-0.08357462,0.1158099,0.0,0.0
0.19592068,-0.13376264,-0.09154768,0.0,0.0
0.31638032,-0.07263757,0.004040004,0.0,0.0
0.21963894,-0.11893025,0.15262903,0.0,0.0
0.07847968,0.038946427,-0.14531164,0.0,0.0
-0.59579694,-0.18691532,0.08335682,0.0,0.0
0.6552193,-0.12662296,0.14447786,0.0,0.0
-0.020487865,-0.18808264,0.10996311,0.0,0.0
0.7322223,0.5389625,-0.04558042,0.0,0.0
-0.45983028,-0.09118751,0.10560443,0.0,0.0
0.7184353,0.0873834,-0.18870097,0.0,0.0
0.12357382,0.21914472,-0.009331251,0.0,0.0
-0.821722,-0.0107356645,-0.07885002,0.0,0.0
0.5641736,-0.048533536,-0.07848324,0.0,0.0
-0.19250646,-0.091483854,0.14048107,0.0,0.0
0.17736882,-0.24706087,0.052180596,0.0,0.0
-0.06488818,-0.030049885,-0.1608898,0.0,0.0
-0.011370437,-0.22077927,0.08755378,0.0,0.0
0.37838054,-0.009071537,-0.1758196,0.0,0.0
-0.71454537,-0.046587415,0.0023294964,0.0,0.0
-0.13160068,0.014595926,-0.0693007,0.0,0.0
-0.9056218,-0.26995263,0.2583235,0.0,0.0
0.42456576,-0.1408207,-0.0447571,0.0,0.0
0.52940935,-0.24204302,0.039729193,0.0,0.0
0.07417322,-0.03647958,0.075009935,0.0,0.0
0.37893465,0.024347808,-0.14127679,0.0,0.0
-0.25827014,0.22448817,-0.09007002,0.0,0.0
0.57828355,-0.13892677,-0.032836184,0.0,0.0
-0.119006656,-0.12012558,0.2021504,0.0,0.0
0.035444804,-0.18642168,0.12281143,0.0,0.0
-0.23533623,0.25970322,-0.058106903,0.0,0.0
-0.7971682,-0.1277263,0.0939163,0.0,0.0
0.7328994,-0.08121909,-0.045568388,0.0,0.0
0.11658693,0.05285389,-0.036189362,0.0,0.0
0.53667676,0.0025647646,0.065180406,0.0,0.0
0.580249,0.29034647,-0.05582613,0.0,0.0
-0.8544268,-0.060990635,-0.1308637,0.0,0.0
0.6995665,-0.01939167,-0.08561183,0.0,0.0
0.19928941,0.06012305,-0.14045076,0.0,0.0
-0.2792626,-0.1935933,0.15915732,0.0,0.0
0.07807007,0.01950325,0.026723834,0.0,0.0
0.7649195,-0.1819356,0.11274271,0.0,0.0
-0.66288894,0.083319634,-0.036708765,0.0,0.0
0.54862875,-0.030811552,0.11385107,0.0,0.0
-0.14133921,0.10256711,-0.09518382,0.0,0.0
-0.5740507,-0.06522219,0.18498535,0.0,0.0
0.9551835,-0.050088014,-0.065143816,0.0,0.0
-0.5840938,0.17814808,-0.09131878,0.0,0.0
-0.98539156,0.12384439,-0.041180007,0.0,0.0
0.006787476,-0.29496747,-0.15156011,0.0,0.0
-0.0061899857,0.19773485,-0.08557525,0.0,0.0
0.6643185,0.28174427,-0.1342326,0.0,0.0
0.057715453,-0.2151158,0.19109213,0.0,0.0
0.17803684,-0.0014521074,0.0117157055,0.0,0.0
-0.31999874,-0.14083675,-0.0007106095,0.0,0.0
-0.56129545,-0.04865458,-0.025385609,0.0,0.0
0.668904,-0.00067329546,0.103029266,0.0,0.0
0.21564588,-0.15305832,0.06491363,0.0,0.0
0.6006588,0.012046327,-0.027806167,0.0,0.0
-0.1358279,0.026688268,0.06343958,0.0,0.0
-0.30891913,0.07759986,-0.04416493,0.0,0.0
-0.5722052,-0.21048014,0.19173759,0.0,0.0
-0.96232116,-0.04605642,-0.10729592,0.0,0.0
-0.088311546,-0.15678279,0.15683486,0.0,0.0
-0.37704358,0.06378356,-0.0025926877,0.0,0.0
0.47281626,-0.17597206,0.12547272,0.0,0.0
0.19686307,0.017503215,-0.10204099,0.0,0.0
-0.006006935,0.24532478,-0.062211275,0.0,0.0
0.36432028,-0.019954614,-0.1430111,0.0,0.0
-0.27590477,-0.17987028,-0.035669796,0.0,0.0
0.68716955,0.29923886,-0.06683832,0.0,0.0
-0.85177296,-0.064575724,0.015809733,0.0,0.0
0.3683569,0.020988919,-0.104053766,0.0,0.0
0.042683348,-0.103662744,0.050499767,0.0,0.0
0.21293786,0.11812018,-0.053969752,0.0,0.0
-0.18336093,0.02815879,0.052490827,0.0,0.0
0.48725232,-0.20575523,0.0043309075,0.0,0.0
-0.288467,-0.11120349,0.13247792,0.0,0.0
-0.058251183,0.049780253,-0.09230965,0.0,0.0
0.59474915,-0.10645214,0.050282426,0.0,0.0
0.77785516,-0.10376782,0.107381254,0.0,0.0
-0.10762601,-0.06178878,-0.06817927,0.0,0.0
0.4947692,-0.08868674,0.075703956,0.0,0.0
0.07611285,-0.15568657,0.17068368,0.0,0.0
-0.770666,-0.01613028,0.06834052,0.0,0.0
0.5468476,0.002170401,-0.023919707,0.0,0.0
0.22456147,0.0625262,-0.025116894,0.0,0.0
-0.21236596,-0.21800353,0.12630902,0.0,0.0
-0.71036446,-0.10414979,0.025304085,0.0,0.0
0.4097087,-0.21533258,-0.028407102,0.0,0.0
0.2578133,-0.19886886,0.17341775,0.0,0.0
0.16340892,-0.11713433,0.017479077,0.0,0.0
-0.05465804,-0.010818858,-0.030950978,0.0,0.0
0.076481484,0.4461865,-0.08750419,0.0,0.0
-0.26656172,-0.13396102,-0.10829744,0.0,0.0
-0.827528,-0.10071236,-0.113437265,0.0,0.0
-0.26352927,0.14524955,-0.11985078,0.0,0.0
0.79664034,0.010332075,-0.03655919,0.0,0.0
-0.16961345,-0.05004022,0.036281984,0.0,0.0
-0.6015277,-0.02529437,0.0067366487,0.0,0.0
-0.43900895,-0.060202323,-0.0946547,0.0,0.0
0.13831495,-0.0049405633,-0.14322673,0.0,0.0
0.40095425,-0.26089627,0.20224361,0.0,0.0
-0.8271862,-0.027150257,-0.068960845,0.0,0.0
0.67024684,-0.12257286,-0.04520626,0.0,0.0
0.60302526,-0.080641344,-0.11125479,0.0,0.0
-0.10682032,-0.15692024,-0.084086284,0.0,0.0
0.29270792,0.037035313,0.093740195,0.0,0.0
0.03668114,-0.048312835,-0.101941906,0.0,0.0
0.5732989,0.36489093,-0.05978039,0.0,0.0
-0.40224412,0.07776091,-0.123466164,0.0,0.0
-0.42650637,-0.1242823,0.20487157,0.0,0.0
-0.013639814,-0.2543897,0.10715409,0.0,0.0
-0.1163986,-0.050667502,0.09167437,0.0,0.0
0.12394097,0.103822574,-0.09468508,0.0,0.0
0.08881356,-0.021006698,0.040163793,0.0,0.0
-0.1323753,-0.04927456,-0.1419674,0.0,0.0
0.5984297,0.00555334,-0.031276077,0.0,0.0
0.29315856,-0.23314467,-0.023624761,0.0,0.0
-0.39308617,0.096947044,0.020759743,0.0,0.0
-0.67315316,0.03363747,-0.033918463,0.0,0.0
0.4560881,-0.24125306,-0.05077059,0.0,0.0
0.70530593,0.11203736,-0.053543255,0.0,0.0
0.24548924,0.0432076,-0.06839014,0.0,0.0
0.23994695,-0.11509427,0.2105051,0.0,0.0
0.174426,0.0059063416,0.054079104,0.0,0.0
0.31068665,-0.093200706,0.034276843,0.0,0.0
-0.034638297,-0.0762204,-0.12292572,0.0,0.0
0.1764785,0.2745471,-0.11299089,0.0,0.0
-0.18735446,-0.1649815,0.11935817,0.0,0.0
-0.37893102,-0.19414614,0.11751098,0.0,0.0
0.4506839,-0.09452007,0.099306636,0.0,0.0
0.021306228,-0.21523996,0.08438654,0.0,0.0
-0.5377326,-0.15608011,-0.08901097,0.0,0.0
0.3790787,-0.04551575,0.04298728,0.0,0.0
-0.5632548,-0.021717582,-0.12957886,0.0,0.0
-0.22576828,0.06633898,-0.0690084,0.0,0.0
-0.43430015,-0.12785256,0.1382921,0.0,0.0
-0.041809946,-0.06425566,-0.16404416,0.0,0.0
0.121024765,-0.06016102,-0.18638,0.0,0.0
0.2762942,-0.026547197,0.00014512212,0.0,0.0
-0.5604531,-0.18212567,0.042617984,0.0,0.0
-0.096020125,-0.06884089,0.12556128,0.0,0.0
0.74258655,-0.1488658,0.13894938,0.0,0.0
-0.057707682,-0.30710664,0.19189872,0.0,0.0
0.2822317,-0.20294078,0.038199924,0.0,0.0
0.20588383,-0.13736582,0.13870624,0.0,0.0
-0.856786,-0.031917974,-0.17864217,0.0,0.0
0.49847537,-0.083092935,0.26935863,0.0,0.0
-0.6729107,0.31513613,-0.1347334,0.0,0.0
0.30515543,0.44993788,-0.12612568,0.0,0.0
0.123741366,-0.13077971,0.06080155,0.0,0.0
0.54620445,0.23761846,-0.105633974,0.0,0.0
0.68950486,-0.15238129,0.019175135,0.0,0.0
-0.9364131,0.20505628,-0.07737786,0.0,0.0
0.4024627,-0.06954786,-0.13950032,0.0,0.0
-0.39621842,-0.06914068,0.051703904,0.0,0.0
-0.15402956,0.15354152,-0.06183019,0.0,0.0
0.19631849,-0.019017084,-0.035564937,0.0,0.0
0.104601465,0.25897306,-0.0923236,0.0,0.0
0.61656594,-0.11691703,-0.044350572,0.0,0.0
-0.49710044,0.15840329,-0.09856946,0.0,0.0
-0.39636707,0.07329417,0.017896188,0.0,0.0
-0.33142662,-0.24985322,0.16146328,0.0,0.0
0.28388423,-0.14847231,0.0122631565,0.0,0.0
-0.21557629,-0.17714977,0.15538868,0.0,0.0
-0.26050276,-0.096312165,0.06524579,0.0,0.0
-0.55080146,-0.13216746,0.17662436,0.0,0.0
0.26283145,-0.050553408,0.116819054,0.0,0.0
0.6611501,-0.038621504,0.033594098,0.0,0.0
-0.38492504,0.08481694,-0.16643643,0.0,0.0
-0.23069209,-0.11437662,-0.14283146,0.0,0.0
-0.06597528,-0.074521415,0.1086113,0.0,0.0
0.73187923,-0.11093917,0.12223865,0.0,0.0
0.3084647,0.14725068,-0.08499529,0.0,0.0
-0.28005287,-0.13043097,-0.07942673,0.0,0.0
0.3045388,0.093912855,-0.14342009,0.0,0.0
0.08453145,-0.1608262,0.012699865,0.0,0.0
1.1235613,-0.020812916,0.1382932,0.0,0.0
0.21829857,-0.13092326,0.10229139,0.0,0.0
-0.6639511,-0.027286436,-0.011913526,0.0,0.0
-0.30951962,0.16286206,-0.10424482,0.0,0.0
0.029503074,0.086937204,-0.14351268,0.0,0.0
0.059094895,-0.0840766,0.01968511,0.0,0.0
0.13801618,-0.17908655,0.20926818,0.0,0.0
0.2855831,0.17874697,-0.020490395,0.0,0.0
0.05126021,-0.15776326,-0.15384154,0.0,0.0
-0.4589617,0.10067645,-0.15440339,0.0,0.0
-0.4187157,-0.018318892,-0.08456354,0.0,0.0
0.83007294,-0.21321703,0.04641863,0.0,0.0
0.22940639,-0.021215709,-0.2006014,0.0,0.0
0.61737835,-0.007469317,0.051249817,0.0,0.0
-0.62025225,-0.09928251,0.15964217,0.0,0.0
0.5688152,-0.25427917,0.21257038,0.0,0.0
-0.40475297,-0.17620923,0.12541696,0.0,0.0
-0.6314326,-0.039286703,-0.08353196,0.0,0.0
-0.81717557,-0.055712402,-0.099120006,0.0,0.0
-0.6808458,0.28311437,-0.11236454,0.0,0.0
-0.7877752,-0.1373668,-0.08547642,0.0,0.0
0.2877657,0.04716806,-0.13458523,0.0,0.0
0.6357993,0.08644573,-0.22266948,0.0,0.0
0.23304127,0.24595475,-0.10902237,0.0,0.0
-0.6796088,-0.07717082,0.007895518,0.0,0.0
-0.27215755,-0.16120349,0.28504398,0.0,0.0
0.51312155,-0.22551501,-0.04295942,0.0,0.0
0.06573711,0.15549073,-0.07450595,0.0,0.0
-0.6303746,-0.18965006,0.12453033,0.0,0.0
0.52392143,0.17358585,-0.020087775,0.0,0.0
-0.6472704,-0.039905977,0.0068408027,0.0,0.0
-0.104223244,0.032139752,-0.066595994,0.0,0.0
0.4352987,0.17811179,-0.042711712,0.0,0.0
-0.44586015,0.04469001,-0.120793626,0.0,0.0
-0.22924867,0.021692194,-0.1359055,0.0,0.0
0.34376177,-0.0664657,0.038784478,0.0,0.0
-0.0072128996,0.12607355,-0.1454343,0.0,0.0
-0.41206113,0.22154719,-0.09122425,0.0,0.0
-0.569632,-0.17222641,0.10782092,0.0,0.0
-0.37186244,0.21998677,-0.019545825,0.0,0.0
0.16607304,-0.10214171,-0.16232291,0.0,0.0
0.2872729,0.090709224,-0.18900807,0.0,0.0
0.48324463,-0.06187823,0.07774868,0.0,0.0
0.7251343,0.06474603,-0.123764284,0.0,0.0
-0.17310247,0.19633356,-0.113349676,0.0,0.0
-0.17293549,0.0026617628,-0.14245112,0.0,0.0
-0.333604,-0.015173714,-0.10623156,0.0,0.0
0.20625475,-0.08009975,0.07324739,0.0,0.0
-0.58740836,-0.2116789,0.04493156,0.0,0.0
-0.50058615,-0.17879672,0.094538875,0.0,0.0
0.6703987,0.27521908,-0.105334915,0.0,0.0
0.6623754,0.12917863,-0.004232623,0.0,0.0
-0.18970294,0.15955324,-0.076577924,0.0,0.0
0.30051273,0.2974991,0.010057293,0.0,0.0
-0.31270295,-0.070457086,0.024291614,0.0,0.0
-0.18572576,0.023273516,-0.068225324,0.0,0.0
-0.27657038,-0.16847034,0.097510435,0.0,0.0
-0.21755774,-0.031333994,0.11237125,0.0,0.0
0.52624667,-0.19725364,0.12542462,0.0,0.0
-0.6639928,0.43078414,-0.113567755,0.0,0.0
-0.85102546,0.15067713,-0.06756947,0.0,0.0
0.5077853,-0.1718327,0.09405817,0.0,0.0
0.8063904,-0.09043675,-0.03294663,0.0,0.0
-0.15277103,-0.092954814,-0.047926128,0.0,0.0
0.17763567,-0.13806343,0.021849383,0.0,0.0
0.5064493,-0.24659327,-0.10284718,0.0,0.0
0.77431595,-0.045920067,-0.123651594,0.0,0.0
0.76929724,-0.08435514,0.013603352,0.0,0.0
0.35793963,0.25955915,-0.099508315,0.0,0.0
0.71738714,-0.05624174,-0.13976695,0.0,0.0
0.36289045,0.004970434,-0.1540824,0.0,0.0
0.59438443,0.077540725,-0.12350689,0.0,0.0
0.0388211,-0.1876847,0.17174609,0.0,0.0
-0.011881828,-0.024115684,-0.02749746,0.0,0.0
0.4700498,-0.018439917,0.07176731,0.0,0.0
0.14600192,0.036602687,-0.11515624,0.0,0.0
0.44798625,-0.19836491,0.028749295,0.0,0.0
0.6120056,-0.087906726,0.055711154,0.0,0.0
0.17497806,0.18565461,-0.13198408,0.0,0.0
-0.15425129,-0.2590983,0.12399264,0.0,0.0
0.67759633,-0.16334234,0.18595776,0.0,0.0
0.69369495,0.16609287,-0.0970563,0.0,0.0
0.3973207,-0.009877039,0.07713991,0.0,0.0
-0.35602924,-0.11016188,0.090370424,0.0,0.0
0.4453697,-0.13910036,-0.067648746,0.0,0.0
0.034512546,-0.18050414,0.10461107,0.0,0.0
0.54479384,-0.07805312,0.16945212,0.0,0.0
-0.30910915,0.07763596,-0.02465823,0.0,0.0
-0.018565137,0.26065114,-0.0554812,0.0,0.0
-0.35012022,-0.22541167,0.13586928,0.0,0.0
-0.081273526,-0.16736613,0.036491666,0.0,0.0
-0.031054737,-0.15613075,0.16847834,0.0,0.0
0.3352523,0.0010987126,0.018608415,0.0,0.0
-0.05792391,-0.20862655,0.121794954,0.0,0.0
-0.22928232,-0.11253214,0.09083181,0.0,0.0
0.19871962,0.16739298,-0.0048155654,0.0,0.0
0.09482952,-0.06837131,-0.0875909,0.0,0.0
0.68374395,0.01708731,-0.049223684,0.0,0.0
-0.6465872,-0.17287199,-0.058104273,0.0,0.0
0.14087215,0.022189273,-0.06692992,0.0,0.0
0.42174342,-0.16788086,0.0034171124,0.0,0.0
-0.15601426,0.18903846,-0.109345615,0.0,0.0
-0.09899508,-0.033666264,-0.012302692,0.0,0.0
-0.5554875,-0.2524886,0.119867414,0.0,0.0
-0.6269698,0.010894198,-0.09649073,0.0,0.0
0.068331756,-0.0011725688,-0.07272233,0.0,0.0
0.78512317,0.08249992,-0.12140983,0.0,0.0
-0.16258614,-0.23057087,0.15265723,0.0,0.0
-0.5865047,0.08751245,-0.18540983,0.0,0.0
0.42225224,-0.056537192,0.09834892,0.0,0.0
-0.4960512,0.09779648,-0.09300676,0.0,0.0
0.6147013,-0.03925154,-0.029545823,0.0,0.0
-0.03702557,-0.079681456,-0.11309459,0.0,0.0
0.4541936,-0.23142675,0.018142574,0.0,0.0
0.36364624,-0.16400836,0.29408026,0.0,0.0
0.42360282,0.0066364734,-0.0011281782,0.0,0.0
-0.16602528,0.028288033,-0.068004645,0.0,0.0
-0.20053452,0.052972954,-0.04669831,0.0,0.0
0.34394112,-0.10372299,0.2103902,0.0,0.0
-0.2853067,-0.16473794,0.12524104,0.0,0.0
-0.13999005,-0.1928512,0.29281223,0.0,0.0
-0.4855259,0.021367647,-0.034645356,0.0,0.0
-0.6157648,-0.18050832,0.22496341,0.0,0.0
-0.74946195,-0.14772525,-0.07641156,0.0,0.0
0.029103816,-0.14279863,-0.06983072,0.0,0.0
0.5632712,-0.056843434,0.029462062,0.0,0.0
0.56378996,-0.2757912,0.25631717,0.0,0.0
0.001246298,-0.13611203,0.16206077,0.0,0.0
0.8770153,-0.14643961,-0.031014604,0.0,0.0
0.07877291,-0.05362687,-0.030299475,0.0,0.0
0.54815125,0.30246568,-0.14056925,0.0,0.0
-0.663309,-0.023246234,-0.058461342,0.0,0.0
0.34724364,0.24303119,-0.046148833,0.0,0.0
-0.590173,-0.0028404552,-0.14922383,0.0,0.0
-0.09884736,-0.018262006,-0.117918245,0.0,0.0
0.31133357,-0.03581486,-0.0073077804,0.0,0.0
0.7558864,-0.010000659,-0.1654836,0.0,0.0
-0.60855716,0.014693295,-0.059575383,0.0,0.0
-0.18545529,0.1299928,-0.06697558,0.0,0.0
-0.38887966,-0.14041847,-0.010326264,0.0,0.0
0.050970133,-0.023493955,0.013394305,0.0,0.0
0.34370124,-0.0011865399,0.12545554,0.0,0.0
0.1710628,-0.118796654,-0.10089294,0.0,0.0
-0.5288961,0.0043498045,0.008500754,0.0,0.0
0.074229054,-0.13963749,0.028010942,0.0,0.0
0.014667507,-0.1747089,0.35171923,0.0,0.0
0.30187497,-0.029204527,-0.13779952,0.0,0.0
0.58160925,-0.23976353,-0.0785697,0.0,0.0
0.33505324,-0.00799249,-0.14763983,0.0,0.0
-0.13148172,-0.031704385,0.018704774,0.0,0.0
0.20594774,-0.049407143,0.070253275,0.0,0.0
0.44648984,-0.1027312,-0.052281898,0.0,0.0
-0.015927492,-0.18078072,0.11216369,0.0,0.0
0.27470452,0.030505097,-0.10336322,0.0,0.0
0.3359976,0.32921252,0.011211964,0.0,0.0
-0.54488647,-0.20643221,-0.123221435,0.0,0.0
-0.18381351,0.11752265,-0.063869625,0.0,0.0
0.20254259,-0.0038004278,-0.05785141,0.0,0.0
0.6006215,-0.18445614,0.33524916,0.0,0.0
0.48893502,-0.10926707,0.20937946,0.0,0.0
0.47499338,-0.1362793,0.14912415,0.0,0.0
-0.44103974,-0.19335939,0.2848581,0.0,0.0
-0.20703728,-0.17298731,-0.03952111,0.0,0.0
0.19763844,-0.093672164,0.13360107,0.0,0.0
0.43647456,0.17980684,-0.03661664,0.0,0.0
0.2692477,0.11959875,-0.06647155,0.0,0.0
0.7189207,0.029901445,-0.15766987,0.0,0.0
-0.30896732,-0.0047575203,0.004060194,0.0,0.0
-0.9962925,-0.120419435,0.0131735355,0.0,0.0
-0.23319648,-0.08758095,-0.06777574,0.0,0.0
0.54913026,-0.03873561,-0.10215785,0.0,0.0
0.16175011,0.017570084,-0.118969165,0.0,0.0
-0.17768155,-0.12862794,0.12514767,0.0,0.0
-0.16535512,-0.20097953,0.08729068,0.0,0.0
-0.5891446,0.097367726,-0.050400138,0.0,0.0
0.6874419,0.13282292,-0.09788924,0.0,0.0
0.6840463,-0.16549693,-0.05893376,0.0,0.0
-0.31007582,-0.07038282,-0.006131129,0.0,0.0
0.20814627,0.039944816,-0.13723934,0.0,0.0
0.27874368,-0.17315213,-0.07556749,0.0,0.0
-0.41917703,-0.008421213,-0.03544084,0.0,0.0
-0.47694176,0.036131267,-0.073225595,0.0,0.0
-0.7221129,-0.2450573,-0.03219718,0.0,0.0
-0.53946084,-0.24789874,0.2530538,0.0,0.0
-0.078485504,-0.26322538,-0.005049662,0.0,0.0
0.3268728,0.067282915,-0.055600274,0.0,0.0
-0.13361388,-0.26064765,0.1797945,0.0,0.0
0.38678774,-0.031261142,0.07154324,0.0,0.0
-0.16708826,0.06404756,-0.07571032,0.0,0.0
-0.46505755,0.0015003687,0.01619831,0.0,0.0
0.37289903,0.18871227,-0.03374488,0.0,0.0
0.40521112,0.030382598,-0.12506375,0.0,0.0
0.7979921,0.10176226,-0.09940201,0.0,0.0
0.13081783,-0.12604442,0.040880334,0.0,0.0
-0.014222467,-0.08318081,0.20735392,0.0,0.0
-0.211894,-0.06445037,-0.017252099,0.0,0.0
0.29093564,0.095270745,-0.1386841,0.0,0.0
-0.16229276,-0.13147514,-0.15008125,0.0,0.0
-0.33133835,0.1689071,-0.14150172,0.0,0.0
0.38847405,-0.11943604,-0.029478418,0.0,0.0
-0.30448464,0.136112,-0.0822404,0.0,0.0
-0.21427108,-0.1653717,0.021333994,0.0,0.0
0.29728687,-0.21058655,-0.0576087,0.0,0.0
-0.90993667,-0.030123422,-0.077772126,0.0,0.0
0.027796045,-0.04115724,0.023849653,0.0,0.0
0.25027448,-0.2159272,0.23278272,0.0,0.0
-0.18017335,-0.12443852,0.0014864912,0.0,0.0
0.46608466,0.013504543,0.13200368,0.0,0.0
0.14172868,-0.20418586,0.27653155,0.0,0.0
0.19956177,0.22521211,-0.105316706,0.0,0.0
0.5635014,-0.06936238,-0.14279158,0.0,0.0
-0.6470196,0.12791182,-0.06578431,0.0,0.0
-0.0026072527,-0.28446192,0.1378084,0.0,0.0
0.56341636,-0.31863472,-0.010224691,0.0,0.0
0.4676284,0.25202176,-0.11069338,0.0,0.0
-0.07757157,0.0052634175,-0.045186125,0.0,0.0
0.49474016,-0.007912638,0.011653398,0.0,0.0
-0.32349443,-0.17328118,-0.058032487,0.0,0.0
-0.2143586,-0.013442369,-0.13719653,0.0,0.0
-0.18882166,-0.12468242,0.0006082414,0.0,0.0
-0.18310435,-0.14973027,0.14259255,0.0,0.0
0.4517943,0.032537702,-0.019341819,0.0,0.0
-0.78466177,-0.067546256,0.038451467,0.0,0.0
-0.35409996,0.5382782,-0.082062185,0.0,0.0
-0.37074515,-0.17084317,-0.04582889,0.0,0.0
-0.56737095,0.02423537,-0.05695103,0.0,0.0
0.16472958,-0.042007487,0.044023126,0.0,0.0
0.6833973,0.111714564,-0.059960358,0.0,0.0
0.69785124,-0.090594,-0.11390372,0.0,0.0
-0.06834334,-0.15303214,-0.103606455,0.0,0.0
-0.6162801,-0.12821017,0.0413459,0.0,0.0
-0.16591896,0.084229894,-0.12976769,0.0,0.0
-0.2638307,-0.090216376,0.07150099,0.0,0.0
0.37056875,-0.0226488,-0.06780599,0.0,0.0
0.38324806,-0.038884375,0.18126771,0.0,0.0
-0.78504175,-0.07339528,-0.12740913,0.0,0.0
0.7618374,-0.002597354,-0.096038654,0.0,0.0
0.42364216,-0.18159111,0.12961781,0.0,0.0
-0.29654998,0.022398576,-0.0011567423,0.0,0.0
-0.15370406,0.45256978,-0.052098643,0.0,0.0
0.7476578,-0.022365445,0.0009155106,0.0,0.0
0.18956952,0.06741515,-0.19301209,0.0,0.0
-0.2963279,0.05898277,-0.119504265,0.0,0.0
0.29769275,-0.03796765,-0.020469943,0.0,0.0
-0.06744228,-0.10928785,0.01754365,0.0,0.0
-0.046306197,-0.2107695,-0.07487863,0.0,0.0
0.37809756,-0.030719459,0.22870708,0.0,0.0
0.34740776,0.23537132,-0.13013935,0.0,0.0
0.28713176,-0.05297945,0.15590262,0.0,0.0
0.74161434,-0.15480514,0.02158969,0.0,0.0
0.02664117,0.06335275,-0.10285137,0.0,0.0
0.46300703,-0.062616706,0.11016257,0.0,0.0
-0.11070133,0.06620592,-0.089133024,0.0,0.0
-0.1982604,-0.14901017,0.11347019,0.0,0.0
0.5935956,-0.011379661,-0.028074387,0.0,0.0
-0.59888244,0.18434806,-0.10639916,0.0,0.0
-0.43725893,0.08613168,-0.08302993,0.0,0.0
0.040131524,-0.05355831,-0.027708983,0.0,0.0
-0.3675088,0.21167728,-0.06194938,0.0,0.0
-0.3075249,0.14000207,-0.07654902,0.0,0.0
-0.07711445,0.016572572,0.0743345,0.0,0.0
-0.037544075,-0.022782175,-0.027393546,0.0,0.0
0.52756923,-0.14763786,0.15024757,0.0,0.0
-0.54602665,0.2487352,-0.10313979,0.0,0.0
-0.717858,0.05122687,-0.113283336,0.0,0.0
-0.52464896,-0.08300812,-0.040930178,0.0,0.0
0.624468,0.0036959765,0.02090126,0.0,0.0
-0.363243,-0.13316907,-0.014435806,0.0,0.0
0.5929514,-0.17763166,-0.027820121,0.0,0.0
0.7395585,-0.05864341,-0.09007584,0.0,0.0
0.5984424,-0.06084282,-0.13872427,0.0,0.0
0.5493637,-0.18375553,-0.07770023,0.0,0.0
-0.064302295,0.13137615,-0.058225896,0.0,0.0
-0.5628056,0.013481278,-0.05757328,0.0,0.0
-0.5246798,-0.23837498,0.099773824,0.0,0.0
-0.78982,-0.17696072,-0.065461576,0.0,0.0
-1.0153414,-0.29612812,0.12674429,0.0,0.0
0.476581,-0.0981299,0.012510055,0.0,0.0
-0.9372017,0.06789893,-0.1062901,0.0,0.0
0.43203545,-0.19479528,-0.01672244,0.0,0.0
0.15253977,-0.23744647,0.08351839,0.0,0.0
0.12881866,0.19760194,-0.007000756,0.0,0.0
-0.5856771,0.15977591,-0.09856824,0.0,0.0
-0.43797433,-0.16092102,0.085170224,0.0,0.0
0.09029906,-0.14375186,0.040516853,0.0,0.0
-0.4394368,-0.14804596,-0.016178211,0.0,0.0
0.064314105,0.240277,-0.06549151,0.0,0.0
0.3884385,-0.029351287,0.016675951,0.0,0.0
-0.65421706,-0.22470072,0.17238702,0.0,0.0
0.6129658,-0.0013929799,0.0022655765,0.0,0.0
-0.7905839,-0.04790206,-0.018062957,0.0,0.0
-0.092912376,-0.19811982,0.02793174,0.0,0.0
-0.32749388,-0.112779476,0.027690906,0.0,0.0
0.07851702,-0.040518,-0.16398567,0.0,0.0
-0.093244,0.15533319,0.025162445,0.0,0.0
0.41811398,0.06616523,-0.08599686,0.0,0.0
-0.021592425,-0.05301705,-0.016486343,0.0,0.0
-0.89573646,-0.020024367,-0.10478254,0.0,0.0
0.37830868,-0.16771585,0.1111167,0.0,0.0
-0.18799645,-0.08732693,-0.11886846,0.0,0.0
-0.48317,0.07932043,-0.01565846,0.0,0.0
-0.1441981,0.24529615,-0.11290153,0.0,0.0
0.3235717,-0.14990388,0.18995073,0.0,0.0
0.5565556,-0.18590091,0.11101602,0.0,0.0
-0.6556621,0.14357135,-0.10014281,0.0,0.0
0.6160727,0.4497659,-0.105379,0.0,0.0
-0.19976036,-0.02537041,0.11258752,0.0,0.0
0.5096546,0.40483573,-0.07328848,0.0,0.0
-0.6906938,-0.08923535,0.03937581,0.0,0.0
0.8171115,-0.05949478,-0.04197875,0.0,0.0
-0.096813485,-0.2437566,-0.03287492,0.0,0.0
-0.5210789,-0.12302392,0.1654023,0.0,0.0
-0.09264407,-0.22798508,0.09953851,0.0,0.0
-0.41705573,0.15422155,0.05442075,0.0,0.0
-0.19521825,0.0007922498,-0.01871012,0.0,0.0
0.5315483,-0.0161731,-0.11761368,0.0,0.0
0.06959988,0.15073477,-0.027250003,0.0,0.0
0.013557747,-0.04982702,0.14083906,0.0,0.0
-0.7035006,-0.18467967,0.08939634,0.0,0.0
-0.7284473,-0.08559166,-0.053699423,0.0,0.0
0.04367339,-0.07863061,0.046950903,0.0,0.0
-0.19829473,-0.12757786,-0.0046578413,0.0,0.0
-0.09628587,0.080495656,-0.13619514,0.0,0.0
-0.10508211,-0.06258494,-0.01204114,0.0,0.0
0.2920179,-0.10561784,-0.12872818,0.0,0.0
0.645899,0.038236927,-0.0018050412,0.0,0.0
-0.21493225,-0.1528467,0.14563008,0.0,0.0
0.56734246,-0.26656464,0.06900347,0.0,0.0
-0.149135,-0.06735292,-0.008598088,0.0,0.0
-0.19115096,0.29439622,-0.10010428,0.0,0.0
0.1696847,-0.12818028,-0.0033193384,0.0,0.0
-0.7537606,-0.038431678,-0.071143016,0.0,0.0
-0.3669805,-0.15742531,0.12873004,0.0,0.0
-0.73992854,-0.07748274,-0.1321973,0.0,0.0
0.26226875,-0.16962466,-0.083565526,0.0,0.0
0.8159857,0.13545409,0.14775185,0.0,0.0
-0.64992136,0.18759733,-0.07821208,0.0,0.0
0.2965655,0.15866704,-0.08355182,0.0,0.0
0.46185282,0.253921,-0.07112459,0.0,0.0
0.1424461,-0.17766652,0.15054694,0.0,0.0
-0.86103046,-0.17299546,-0.069201715,0.0,0.0
0.24141367,-0.17806578,0.08662209,0.0,0.0
0.64333427,0.013639705,-0.11674589,0.0,0.0
0.36841914,0.04231009,-0.1491666,0.0,0.0
-0.88744694,0.20525199,-0.061123624,0.0,0.0
-0.61815375,-0.19684206,-0.062888525,0.0,0.0
-0.20890777,0.09828207,0.056679457,0.0,0.0
-0.32493305,-0.1319305,-0.07639065,0.0,0.0
0.54050034,-0.17737812,0.042516332,0.0,0.0
-0.8773084,-0.030437406,-0.0848875,0.0,0.0
0.24513544,-0.16298346,0.19358398,0.0,0.0
-0.39581782,-0.023670498,-0.016980309,0.0,0.0
-0.37315717,0.039761692,0.056412965,0.0,0.0
0.4970974,-0.30279627,0.1352326,0.0,0.0
-0.14931363,-0.033465043,-0.030003062,0.0,0.0
0.7618308,-0.18112692,0.052124504,0.0,0.0
0.20941678,-0.23610348,0.29350552,0.0,0.0
-0.28498533,-0.2483693,0.17758177,0.0,0.0
0.2190914,0.08604286,-0.13991876,0.0,0.0
-0.44042802,0.018955326,-0.032983635,0.0,0.0
0.14463162,-0.07707316,-0.122477286,0.0,0.0
0.38967413,-0.12239502,0.0045312713,0.0,0.0
0.3070619,0.06126,-0.13651283,0.0,0.0
-0.56352156,-0.158342,0.20986633,0.0,0.0
0.715491,-0.09003281,0.052986283,0.0,0.0
0.03397673,0.046296977,-0.14476477,0.0,0.0
-0.13027507,-0.0580252,-0.12970869,0.0,0.0
-0.079074055,-0.18093662,0.1550877,0.0,0.0
0.83640724,0.40149018,0.053418856,0.0,0.0
0.46510142,-0.2024123,-0.10472076,0.0,0.0
-0.6141948,-0.07299692,-0.15502195,0.0,0.0
0.64057595,-0.09653501,0.19171873,0.0,0.0
-0.3132891,-0.31157616,-0.0052314433,0.0,0.0
-0.21146566,-0.015115151,0.17089258,0.0,0.0
0.5244077,-0.13147935,-0.117715225,0.0,0.0
-0.53515726,-0.07861159,0.15173617,0.0,0.0
0.40700194,-0.09555417,-0.039711133,0.0,0.0
-0.7380796,0.040801294,-0.062065292,0.0,0.0
-0.357987,-0.043436565,0.0878837,0.0,0.0
0.29312244,0.07122994,-0.021715216,0.0,0.0
-0.44521493,0.016299661,-0.120178215,0.0,0.0
-0.07850926,-0.15492706,-0.059503436,0.0,0.0
0.7318718,-0.24533334,-0.06848121,0.0,0.0
0.21768361,-0.1018672,0.1461247,0.0,0.0
0.70783293,-0.1826756,0.15977469,0.0,0.0
0.37734896,-0.11144656,0.020997334,0.0,0.0
0.50187725,0.4004183,-0.07792193,0.0,0.0
-0.38593018,0.07038927,-0.042077772,0.0,0.0
-0.22916403,0.1886279,-0.09725942,0.0,0.0
0.091102466,-0.1968173,0.1389688,0.0,0.0
-0.29170343,-0.21670412,-0.033707224,0.0,0.0
0.19976623,0.33132347,-0.11434482,0.0,0.0
-0.23076268,-0.038128864,0.059057467,0.0,0.0
-0.68196034,-0.042267494,-0.08120282,0.0,0.0
0.08270044,-0.10113831,-0.026587524,0.0,0.0
-0.0055765556,-0.12115095,-0.034850284,0.0,0.0
-0.07956912,0.06379743,-0.11409128,0.0,0.0
-0.17865327,0.19720715,-0.09400555,0.0,0.0
0.93788874,-0.07970975,-0.029060606,0.0,0.0
-0.68146986,-0.10414085,0.031959467,0.0,0.0
0.3531215,-0.1831799,0.072922036,0.0,0.0
0.27364567,0.18682198,-0.17226282,0.0,0.0
0.66405106,0.3100819,-0.0815811,0.0,0.0
-0.2846538,0.44338888,-0.091874234,0.0,0.0
-0.6378899,-0.038508285,-0.07518874,0.0,0.0
0.6767216,-0.12614356,-0.10354128,0.0,0.0
0.28232852,-0.13086806,0.07300524,0.0,0.0
-0.065548494,-0.179077,0.10855955,0.0,0.0
-0.6612026,-0.03491757,0.01871176,0.0,0.0
-0.51123613,0.10660234,0.006415086,0.0,0.0
-0.153421,-0.034489613,0.024193138,0.0,0.0
0.5589317,0.046967357,-0.19197708,0.0,0.0
-0.11636824,-0.21505146,-0.008947785,0.0,0.0
0.288068,-0.04337787,0.15336463,0.0,0.0
-0.78699,-0.117073186,0.02930869,0.0,0.0
-0.59168196,0.052447163,-0.028057603,0.0,0.0
-0.83544147,-0.13064685,0.010460232,0.0,0.0
-0.63261575,-0.22738707,0.07700625,0.0,0.0
0.3145154,0.21953656,-0.059397727,0.0,0.0
0.45186368,-0.0069914022,-0.09792876,0.0,0.0
-0.16458759,-0.198257,0.23200731,0.0,0.0
0.13248812,0.031081975,-0.018699063,0.0,0.0
-0.6498663,-0.002571105,-0.119230166,0.0,0.0
-0.71191114,-0.007064648,-0.06599025,0.0,0.0
-0.13614422,0.29315507,-0.13251133,0.0,0.0
0.17833245,-0.20380743,0.009625992,0.0,0.0
-0.008623335,-0.124581695,0.16265742,0.0,0.0
-0.69267756,0.101580516,-0.072911486,0.0,0.0
0.31842446,-0.18307672,0.039079607,0.0,0.0
0.6698268,-0.01500384,-0.04722789,0.0,0.0
0.90127295,0.44634148,-0.06988162,0.0,0.0
-0.23774962,0.18519777,-0.07460066,0.0,0.0
-0.12058563,-0.030350186,-0.096038625,0.0,0.0
-0.44419733,-0.110266626,0.06203669,0.0,0.0
-0.65318274,-0.07011469,0.00039659988,0.0,0.0
-0.15040405,0.021832542,-0.063163824,0.0,0.0
-0.12377754,-0.043935068,0.12609205,0.0,0.0
0.5999153,-0.034921598,-0.11367086,0.0,0.0
-0.0655884,-0.20908767,0.12967658,0.0,0.0
0.7005675,-0.030828461,0.05525384,0.0,0.0
-0.5911356,0.16205537,-0.14490947,0.0,0.0
-0.20468818,-0.05867153,0.087486565,0.0,0.0
-0.41401646,0.055467166,-0.10945377,0.0,0.0
-0.41828403,-0.09109466,0.079762585,0.0,0.0
-0.6869362,0.022281716,-0.013022775,0.0,0.0
0.67381895,0.4236978,-0.07423828,0.0,0.0
0.9350369,0.008316151,-0.09230361,0.0,0.0
-0.38683555,0.12349027,0.045445733,0.0,0.0
0.17551482,-0.088807546,0.100667775,0.0,0.0
0.12844306,-0.14763469,0.16377103,0.0,0.0
0.5327381,0.317819,-0.095806815,0.0,0.0
0.30185422,-0.064593315,0.049995497,0.0,0.0
-0.6579753,-0.12116192,-0.046994086,0.0,0.0
-0.112247095,-0.24351224,0.28660136,0.0,0.0
-0.6700174,-0.10254055,-0.0022139496,0.0,0.0
-0.049745318,-0.09491296,0.19571136,0.0,0.0
0.110581905,0.07450333,-0.04535479,0.0,0.0
0.18068601,-0.21119374,0.112544194,0.0,0.0
-0.1229287,0.07347145,-0.07385147,0.0,0.0
0.587909,0.049488213,0.011057371,0.0,0.0
0.4018034,-0.11185409,-0.13181372,0.0,0.0
-0.02569237,-0.21524829,0.14722343,0.0,0.0
-0.71816933,-0.09925466,-0.033493064,0.0,0.0
-0.33103728,0.02151899,-0.098736785,0.0,0.0
-0.09401776,-0.21855912,-0.088049814,0.0,0.0
-0.7757618,-0.036160246,-0.09956269,0.0,0.0
-0.3335397,0.05516222,0.07043699,0.0,0.0
0.04391815,-0.026870832,-0.10023357,0.0,0.0
-0.81466454,0.061639406,-0.09291314,0.0,0.0
0.005225466,-0.23937926,0.19099337,0.0,0.0
-0.23438123,0.04707111,-0.024056714,0.0,0.0
-0.32576156,0.06490785,-0.10233147,0.0,0.0
-0.123267755,0.09461041,-0.041827183,0.0,0.0
-0.7307509,-0.10065563,0.13372058,0.0,0.0
-0.17439935,0.07651874,-0.03821441,0.0,0.0
-0.46170157,0.040042393,-0.06725303,0.0,0.0
0.7751994,-0.15651916,-0.05123578,0.0,0.0
-0.218121,-0.12323209,-0.082558475,0.0,0.0
-0.2723625,-0.04243853,0.06156585,0.0,0.0
-0.416927,0.24809712,0.040080197,0.0,0.0
-0.8300206,-0.014494225,-0.0790898,0.0,0.0
0.02517076,-0.22987263,0.14805914,0.0,0.0
0.4015874,-0.10092405,-0.13212821,0.0,0.0
-0.018391166,-0.04741461,0.21218027,0.0,0.0
-0.08157666,-0.046766013,0.06866717,0.0,0.0
-0.32710367,0.20871434,-0.07855923,0.0,0.0
0.07018311,0.10108371,0.02269247,0.0,0.0
-0.62438697,-0.09033257,0.10079729,0.0,0.0
0.007427481,-0.070993125,-0.0036264376,0.0,0.0
0.7708979,-0.10094822,-0.13586277,0.0,0.0
-0.16045658,-0.032365516,-0.1594867,0.0,0.0
0.5625361,-0.123120695,0.16625224,0.0,0.0
0.29234374,0.38783574,-0.14156842,0.0,0.0
0.7291903,0.016810238,-0.1100797,0.0,0.0
-0.29245257,0.22869462,0.013391779,0.0,0.0
0.2585239,-0.054291982,0.054422326,0.0,0.0
0.03017876,-0.07102032,0.26428047,0.0,0.0
0.40525043,0.09586115,-0.089110814,0.0,0.0
0.031751003,0.061567012,-0.060736034,0.0,0.0
-0.28590694,0.09578804,-0.10457829,0.0,0.0
0.46050197,-0.108450174,0.14657474,0.0,0.0
0.72448075,-0.08197613,0.020270417,0.0,0.0
-0.050332442,0.03123906,0.08803228,0.0,0.0
0.3780303,-0.079482354,-0.09601424,0.0,0.0
0.2824367,0.16955021,-0.10357945,0.0,0.0
0.29672873,0.01050941,-0.13164933,0.0,0.0
-0.06291546,0.095075645,0.2873473,0.0,0.0
0.217102,-0.21130642,0.13205174,0.0,0.0
0.5614086,0.12971207,-0.14732191,0.0,0.0
-0.15136066,0.03880481,-0.1309023,0.0,0.0
0.09486175,0.3333684,-0.103817545,0.0,0.0
-0.75148755,-0.14221936,0.053401113,0.0,0.0
0.65290534,-0.11903555,-0.13413185,0.0,0.0
0.6940982,-0.02059342,-0.04010384,0.0,0.0
-0.35116252,-0.20017542,-0.16341874,0.0,0.0
-0.14632869,0.26482168,-0.13458458,0.0,0.0
0.13116446,0.3644464,-0.07572896,0.0,0.0
-0.21087925,-0.1223965,0.14108072,0.0,0.0
-0.7732407,-0.10498424,-0.010594868,0.0,0.0
0.522678,-0.22323892,0.22573592,0.0,0.0
-0.39238027,-0.0055676503,-0.12996817,0.0,0.0
0.11835466,0.36507148,-0.086697534,0.0,0.0
-0.50940275,0.108023286,-0.12896085,0.0,0.0
0.2740342,-0.16763745,0.09904243,0.0,0.0
0.6563187,-0.1851673,0.12456179,0.0,0.0
0.040715277,0.053895336,0.010881584,0.0,0.0
0.5206776,0.22119106,-0.018367274,0.0,0.0
0.18433604,-0.018355345,-0.1690023,0.0,0.0
-0.04050717,-0.023330674,-0.14013368,0.0,0.0
0.29193723,-0.20931762,0.21333201,0.0,0.0
-0.38463625,-0.022613505,0.08025736,0.0,0.0
0.31068712,-0.09988966,0.12399469,0.0,0.0
-0.6344015,-0.03655702,0.039761122,0.0,0.0
0.18332681,-0.15546146,0.054691628,0.0,0.0
-0.26033095,0.10148348,0.048124522,0.0,0.0
-0.62184495,0.34168765,0.03728565,0.0,0.0
-0.16757911,0.31544933,-0.10763144,0.0,0.0
0.6141622,-0.20060141,0.27484325,0.0,0.0
0.15251586,-0.0708767,0.04340835,0.0,0.0
-0.4978321,0.041400578,0.046233293,0.0,0.0
0.9592872,-0.029020783,-0.17317607,0.0,0.0
0.0068874145,0.18834561,-0.09544974,0.0,0.0
0.71415657,0.2676339,0.11258349,0.0,0.0
0.013870655,-0.19674829,-0.07969717,0.0,0.0
0.5187605,-0.13137892,0.0028732044,0.0,0.0
0.3978274,-0.060472783,0.03568156,0.0,0.0
-0.6290133,-0.004640569,-0.13574041,0.0,0.0
0.13432018,0.16670255,-0.12395941,0.0,0.0
0.2547685,-0.19071388,0.09244698,0.0,0.0
-0.6587505,0.26400325,-0.057392076,0.0,0.0
0.15082571,-0.0081619555,0.03366629,0.0,0.0
0.14471823,-0.1096964,-0.14432879,0.0,0.0
0.14539334,-0.19600686,0.09485073,0.0,0.0
-0.17965624,-0.09057887,-0.15604873,0.0,0.0
0.642262,-0.11909852,-0.012667154,0.0,0.0
-0.1804272,0.25037363,-0.062499184,0.0,0.0
-0.23220576,-0.06779603,0.11106485,0.0,0.0
-0.5345607,-0.13202567,0.05548706,0.0,0.0
0.639253,-0.21486706,0.023395466,0.0,0.0
0.1423414,-0.19126803,-0.18066049,0.0,0.0
0.16215672,-0.17318693,0.12932432,0.0,0.0
0.1318951,-0.2093684,0.06295645,0.0,0.0
-0.19799542,0.18270627,-0.17674628,0.0,0.0
0.5767339,-0.09353209,-0.10513048,0.0,0.0
-0.3223114,-0.100474484,-0.052572537,0.0,0.0
0.3267049,-0.20659879,0.10917082,0.0,0.0
-0.2973929,-0.11634738,-0.0054568695,0.0,0.0
0.6470759,-0.22954595,0.27956873,0.0,0.0
-0.10313262,0.17065579,-0.12014113,0.0,0.0
0.44506842,-0.10645146,0.13037345,0.0,0.0
0.53216904,-0.0032611229,-0.04139195,0.0,0.0
-0.054522306,0.13904548,-0.07592871,0.0,0.0
0.14792402,0.17545913,-0.17450218,0.0,0.0
-0.024058042,-0.16536096,0.2840696,0.0,0.0
0.6790059,-0.03489737,-0.024506742,0.0,0.0
-0.26359394,-0.062325966,0.08312058,0.0,0.0
0.050353523,-0.013282874,0.019733131,0.0,0.0
0.5123073,0.37010026,0.11089293,0.0,0.0
-0.65912825,-0.19886996,0.06308756,0.0,0.0
0.4233601,-0.009064267,-0.14790821,0.0,0.0
0.023228437,0.28946957,-0.030898519,0.0,0.0
-0.24591888,0.028587516,0.05209391,0.0,0.0
0.50244594,0.059392054,0.05569914,0.0,0.0
-0.09326672,0.244059,-0.086082704,0.0,0.0
-0.06446543,-0.031948943,0.14646742,0.0,0.0
0.51174164,0.07687135,-0.025825633,0.0,0.0
-0.7240891,-0.17496957,0.038702067,0.0,0.0
0.14871107,0.026652489,0.028358068,0.0,0.0
0.37058315,-0.004789131,-0.07979761,0.0,0.0
0.48005387,-0.13252376,-0.11058208,0.0,0.0
-0.6801104,0.044680268,-0.13930911,0.0,0.0
-0.26939783,-0.4573131,0.51725817,0.0,0.0
0.7757097,-0.15770082,-0.023909023,0.0,0.0
-0.09135703,0.07013217,0.06125873,0.0,0.0
0.1540254,-0.0015793256,-0.1185931,0.0,0.0
0.42085376,0.2687097,-0.02620206,0.0,0.0
0.81340516,-0.10753173,0.0023151296,0.0,0.0
-0.039516736,-0.2204232,0.15315303,0.0,0.0
-0.24885894,0.22446561,-0.0733424,0.0,0.0
-0.805054,-0.19800441,-0.054874957,0.0,0.0
-0.21182157,0.033314206,-0.016273264,0.0,0.0
-0.61173266,-0.156133,0.09841535,0.0,0.0
-0.26653925,0.32524955,-0.057168577,0.0,0.0
-0.017804682,-0.15227352,0.16282822,0.0,0.0
0.87800044,0.028146626,-0.10901295,0.0,0.0
0.50172544,-0.027978133,-0.13173553,0.0,0.0
0.48023692,-0.07583146,-0.04425562,0.0,0.0
0.50268435,-0.09181244,-0.023667881,0.0,0.0
-0.07933248,-0.088155665,-0.12850162,0.0,0.0
-0.11125505,0.1439343,-0.031960517,0.0,0.0
-0.6407758,-0.11754022,0.06986599,0.0,0.0
0.82653344,-0.020193504,-0.1285019,0.0,0.0
-0.48605788,-0.054343246,0.053925626,0.0,0.0
0.17298798,-0.043479,0.01896341,0.0,0.0
-0.029318675,0.23424298,0.08640764,0.0,0.0
-0.062268183,0.013067761,-0.054986384,0.0,0.0
-0.5033483,-0.05750396,-0.094441675,0.0,0.0
-0.044274345,0.00989369,-0.021531537,0.0,0.0
0.47101256,0.13648953,-0.13636641,0.0,0.0
0.44747648,-0.12585802,-0.09426665,0.0,0.0
0.07219892,0.19352396,-0.10051035,0.0,0.0
0.19811602,0.028483018,-0.021342978,0.0,0.0
-0.7355817,0.0071612434,0.028159909,0.0,0.0
-0.17001598,0.07458454,-0.15404084,0.0,0.0
-0.4216331,0.13332342,-0.08360779,0.0,0.0
-0.39694208,-0.21488613,0.036824886,0.0,0.0
0.3218059,-0.20695052,0.23340651,0.0,0.0
0.08212178,0.394303,-0.023199596,0.0,0.0
0.12010084,0.20161732,-0.10319532,0.0,0.0
0.74114007,-0.10804002,0.11689836,0.0,0.0
-0.4170719,-0.18899667,0.03821228,0.0,0.0
-0.32889175,0.1842093,-0.14032494,0.0,0.0
-0.6141975,-0.09302087,0.32078916,0.0,0.0
-0.6355958,0.052293934,-0.1194689,0.0,0.0
0.20287597,0.020081827,-0.106560916,0.0,0.0
0.6011073,-0.09680137,-0.15371013,0.0,0.0
-0.6434408,0.034094483,-0.09891145,0.0,0.0
-0.28502178,0.1062712,-0.08413998,0.0,0.0
0.32236454,0.09306475,-0.05187605,0.0,0.0
-0.7419631,0.081502594,-0.05185866,0.0,0.0
-0.67442846,-0.054153033,-0.080347985,0.0,0.0
-0.12685247,0.15359022,-0.09796476,0.0,0.0
0.65586746,-0.11274632,-0.08768112,0.0,0.0
0.74580854,-0.052558087,-0.0971928,0.0,0.0
0.100898385,0.014415053,-0.07820094,0.0,0.0
-0.048564572,0.004365153,-0.042049635,0.0,0.0
-0.29477757,-0.17896006,0.3341155,0.0,0.0
0.60484046,0.05928367,0.024326373,0.0,0.0
0.03010167,-0.070568174,-0.0024044067,0.0,0.0
-0.45270458,0.27892077,-0.08370676,0.0,0.0
0.5939782,-0.051741667,-0.08500471,0.0,0.0
-0.47065446,0.042318337,-0.07508129,0.0,0.0
-0.61533,0.035771806,-0.045621403,0.0,0.0
-0.20775452,-0.005865886,0.021783741,0.0,0.0
-0.21912573,-0.295464,0.47343233,0.0,0.0
0.4266883,0.079478286,-0.16817917,0.0,0.0
-0.80676866,-0.03431506,-0.06507299,0.0,0.0
0.60090095,0.035862412,0.029975288,0.0,0.0
0.32258648,-0.028597297,-0.11672986,0.0,0.0
0.76669097,-0.099464886,-0.1534676,0.0,0.0
0.5605027,-0.059298154,0.17811848,0.0,0.0
-0.3841584,-0.18797955,0.08312936,0.0,0.0
0.15399046,0.24218331,-0.04630849,0.0,0.0
0.009328546,-0.19563212,0.10384846,0.0,0.0
0.27747598,-0.054529972,-0.016279338,0.0,0.0
-0.013675591,-0.20246802,0.12652966,0.0,0.0
0.54567754,-0.18122974,-0.008774937,0.0,0.0
-0.21717289,0.09478189,0.014838025,0.0,0.0
-0.029508762,-0.054832704,-0.008500515,0.0,0.0
-0.7960889,-0.21721227,0.06454706,0.0,0.0
0.41341734,0.26268202,-0.097121075,0.0,0.0
0.051925294,-0.15089293,0.1512017,0.0,0.0
0.59936297,-0.2085767,0.17171293,0.0,0.0
0.646948,-0.19962113,0.14578284,0.0,0.0
0.44298756,-0.18479137,0.2623288,0.0,0.0
0.38229218,-0.21462342,0.1525971,0.0,0.0
0.39042494,0.025795901,-0.091164,0.0,0.0
-0.07329462,-0.1656253,-0.07231464,0.0,0.0
0.7851442,-0.10998579,-0.08821002,0.0,0.0
0.07129578,-0.09870847,0.21801583,0.0,0.0
0.5969053,0.06335148,-0.054187138,0.0,0.0
0.0015973318,0.21392266,-0.18797697,0.0,0.0
-0.5710306,-0.072100945,-0.02383245,0.0,0.0
0.5092185,0.09113587,-0.091999106,0.0,0.0
-0.44608602,-0.3081972,-0.037620172,0.0,0.0
0.3585141,-0.058443137,0.10375644,0.0,0.0
-0.7540172,-0.10941633,0.013914514,0.0,0.0
0.2433502,0.18547525,-0.09981653,0.0,0.0
0.0018737125,0.08244486,-0.12944843,0.0,0.0
0.14349566,0.07768159,-0.113291815,0.0,0.0
0.24686107,-0.25719142,0.18061881,0.0,0.0
-0.2593851,-0.0020931982,-0.026817262,0.0,0.0
0.6983009,-0.15189032,0.24058418,0.0,0.0
0.34827986,-0.0601668,0.10133429,0.0,0.0
-0.12845387,-0.17526892,0.015168569,0.0,0.0
0.6871757,0.38844195,-0.04849004,0.0,0.0
0.6192805,-0.20325582,0.01975243,0.0,0.0
0.12879792,-0.23837735,0.07253604,0.0,0.0
0.24447252,0.0045466013,-0.06188029,0.0,0.0
0.07756838,-0.11133118,-0.13543095,0.0,0.0
0.32114235,-0.014982786,0.24702078,0.0,0.0
0.15858975,-0.15956567,-0.032039076,0.0,0.0
0.74401104,0.39419845,0.0029286875,0.0,0.0
0.048913255,-0.0666657,-0.1260372,0.0,0.0
0.26661187,0.26330483,0.087006316,0.0,0.0
-0.023918863,-0.1987871,0.07861445,0.0,0.0
0.30079278,-0.10508979,0.00049532094,0.0,0.0
0.4787599,-0.13737278,-0.096244365,0.0,0.0
0.4630234,0.066786245,0.059515174,0.0,0.0
0.64576596,-0.045640916,-0.016147755,0.0,0.0
0.1864901,0.18839043,0.04836545,0.0,0.0
0.21631287,-0.09790658,0.05945134,0.0,0.0
0.360409,-0.06840552,-0.018132549,0.0,0.0
-0.004113271,0.22043885,-0.078738354,0.0,0.0
-0.06856234,-0.2019236,0.09846872,0.0,0.0
0.19285752,-0.21123706,0.18113814,0.0,0.0
-0.8718085,-0.059267867,0.050256636,0.0,0.0
-0.44072106,-0.026771463,-0.16653334,0.0,0.0
-0.566952,-0.027049853,0.04086441,0.0,0.0
0.20680523,-0.12072449,0.09988658,0.0,0.0
0.46266237,0.23181088,-0.097318165,0.0,0.0
0.04739171,0.06901714,-0.031952403,0.0,0.0
0.9450218,-0.05783288,-0.10479128,0.0,0.0
0.41867825,-0.022773352,-0.07447027,0.0,0.0
-0.3216033,-0.0770539,0.0033407179,0.0,0.0
-0.2637665,-0.065546334,0.10860158,0.0,0.0
0.39448634,-0.019956613,-0.045214847,0.0,0.0
0.6049704,0.3980656,-0.04713413,0.0,0.0
-0.6604003,-0.24002436,0.116467126,0.0,0.0
0.48023692,-0.11144743,-0.13847257,0.0,0.0
0.06309189,-0.004316726,-0.044289872,0.0,0.0
-0.67811674,-0.24240835,0.11052724,0.0,0.0
-0.11611522,0.364614,-0.11149521,0.0,0.0
-0.7748113,0.3685834,-0.07539013,0.0,0.0
0.29137132,-0.08606497,-0.0799103,0.0,0.0
0.38226536,-0.023164677,-0.1558707,0.0,0.0
0.11976155,0.047077388,-0.0402925,0.0,0.0
0.21800245,0.19978641,-0.11761851,0.0,0.0
-0.3202418,-0.31873095,0.2341611,0.0,0.0
0.09268332,-0.18162628,0.17805237,0.0,0.0
0.23332097,-0.17121904,0.114798486,0.0,0.0
0.2873451,0.10328008,-0.1689477,0.0,0.0
0.12405663,-0.026616069,-0.018598095,0.0,0.0
-0.42791468,-0.12540248,-0.14180979,0.0,0.0
0.16280228,-0.15476143,0.12160244,0.0,0.0
-0.48703253,0.15514678,-0.11258217,0.0,0.0
-0.89605767,-0.018045867,-0.11585395,0.0,0.0
0.15428075,-0.010723639,-0.027956255,0.0,0.0
-0.77083313,0.0044724024,-0.081136666,0.0,0.0
0.43516833,0.049755685,-0.15460134,0.0,0.0
-0.25149012,-0.04058506,-0.044578265,0.0,0.0
0.72802395,-0.13609894,-0.014661669,0.0,0.0
0.45916787,-0.08589038,-0.0024097841,0.0,0.0
-0.14411427,-0.024063775,-0.022596397,0.0,0.0
0.3141732,-0.050602473,0.14940588,0.0,0.0
0.35958886,0.24090473,0.102961026,0.0,0.0
0.40078673,-0.067088395,-0.08388246,0.0,0.0
-0.24012846,0.023234151,0.12875217,0.0,0.0
-0.29054895,0.18923953,-0.03251188,0.0,0.0
0.643946,-0.0008877844,-0.16205719,0.0,0.0
-0.15523194,-0.016340774,-0.11513502,0.0,0.0
0.06708662,0.18022761,-0.13662985,0.0,0.0
-0.8405035,0.058660746,0.049821436,0.0,0.0
