x,y,z,f,scl1
0.5679569,0.57385015,0.12643223,0.0,0.0
-0.45257017,-0.030984873,0.041574474,0.0,0.0
0.07547418,-0.040109884,-0.031966917,0.0,0.0
0.09022666,-0.18605794,0.06924136,0.0,0.0
-0.014821792,0.14275959,-0.14815734,0.0,0.0
0.26483795,0.20665072,-0.008028578,0.0,0.0
0.24731983,0.16594101,-0.041711487,0.0,0.0
0.21371396,-0.13633345,-0.026601974,0.0,0.0
0.5758762,0.11760838,-0.003194917,0.0,0.0
0.4162214,-0.14645746,0.13807167,0.0,0.0
-0.7686364,-0.0007444229,0.099177845,0.0,0.0
-0.47790897,-0.24281007,0.055356454,0.0,0.0
-0.37285647,-0.05018281,0.061654318,0.0,0.0
-0.5917641,-0.08572475,0.031279393,0.0,0.0
0.59222174,-0.2895113,0.2521985,0.0,0.0
0.055681914,0.10487873,0.0023077906,0.0,0.0
-0.35345948,-0.15505083,0.17827971,0.0,0.0
-0.4325302,0.053061385,-0.048308864,0.0,0.0
-0.38923314,0.077408485,0.02319908,0.0,0.0
-0.42770565,0.053199753,-0.0012787168,0.0,0.0
0.6831509,-0.12287926,0.10626856,0.0,0.0
0.10885626,0.11297881,-0.09556733,0.0,0.0
-0.5262609,0.0010388951,-0.09913578,0.0,0.0
-0.033807985,-0.03171024,0.04650071,0.0,0.0
-0.46884602,0.11429065,-0.14549717,0.0,0.0
0.56563425,0.027062586,-0.119790435,0.0,0.0
0.38481537,-0.1487511,-0.1091434,0.0,0.0
0.3492696,0.28410578,-0.105132364,0.0,0.0
-0.114761,-0.14968635,0.18348904,0.0,0.0
0.3290061,0.22411893,-0.07511896,0.0,0.0
0.046180047,-0.2181994,0.09543129,0.0,0.0
-0.86373746,-0.0696277,-0.04810412,0.0,0.0
-0.80332005,0.071165405,-0.08341816,0.0,0.0
0.5904009,0.3814985,0.03261249,0.0,0.0
-0.3376562,-0.16247563,0.2055999,0.0,0.0
0.6126979,-0.1785232,-0.0009013918,0.0,0.0
0.7890728,-0.12527382,-0.030869648,0.0,0.0
-0.17995164,0.4489447,-0.12766187,0.0,0.0
-0.20179373,-0.17605871,0.123507485,0.0,0.0
-0.5577833,0.12731077,-0.11435916,0.0,0.0
0.34302709,-0.008462774,0.22582197,0.0,0.0
0.69878507,-0.049373005,0.016482418,0.0,0.0
0.102228194,0.31112587,-0.054331705,0.0,0.0
0.6762864,0.012127655,-0.10946969,0.0,0.0
0.6659558,-0.014168174,-0.17599852,0.0,0.0
0.50542367,-0.10404577,-0.08723695,0.0,0.0
-0.4615987,0.09218086,-0.08424987,0.0,0.0
0.718926,-0.09108193,0.15033373,0.0,0.0
-0.012176417,-0.09297919,0.1005062,0.0,0.0
0.15261276,0.018748937,0.033928063,0.0,0.0
0.5499201,-0.20087188,-0.057219617,0.0,0.0
0.65155375,-0.03849768,-0.09659748,0.0,0.0
-0.49981385,-0.07937651,0.062080733,0.0,0.0
0.60923886,-0.2798933,0.12518673,0.0,0.0
-0.25063196,0.36626577,-0.08124371,0.0,0.0
0.56585985,-0.0032109288,-0.021187412,0.0,0.0
-0.011170977,-0.122522935,0.060371313,0.0,0.0
-0.58859354,-0.045926347,-0.16206987,0.0,0.0
-0.7906765,0.30795944,-0.11919616,0.0,0.0
0.35217428,0.049035605,0.036538195,0.0,0.0
-1.0704285,-0.15549977,-0.1137557,0.0,0.0
-0.4916545,0.24626553,-0.07424458,0.0,0.0
-0.7168113,-0.116533704,-0.0062242923,0.0,0.0
0.30744436,-0.14399561,0.019143932,0.0,0.0
0.80681264,0.22985473,-0.07585792,0.0,0.0
-0.33743885,-0.05233804,0.20352198,0.0,0.0
-0.3722265,-0.17094103,0.21251278,0.0,0.0
-0.16812381,-0.17587474,0.102008164,0.0,0.0
0.23673931,-0.13793014,-0.0459705,0.0,0.0
-0.7497778,-0.08322881,-0.12039316,0.0,0.0
-0.5380193,-0.1895115,-0.055674594,0.0,0.0
0.088975534,0.057384424,-0.15699755,0.0,0.0
-0.030619035,0.16964535,-0.021829257,0.0,0.0
-0.60816556,0.23535626,0.14247568,0.0,0.0
-0.26258606,-0.20894852,0.18096156,0.0,0.0
0.3202768,0.0021967625,-0.1617132,0.0,0.0
0.040220827,-0.12239191,0.17861673,0.0,0.0
-0.8656731,-0.05550063,-0.06255997,0.0,0.0
0.71146375,-0.19675201,0.18117668,0.0,0.0
0.5184573,0.33980018,-0.118963905,0.0,0.0
-0.7199288,-0.023122525,-0.10322313,0.0,0.0
-0.5887047,-0.1353707,0.07496037,0.0,0.0
0.3552232,0.09172493,-0.19106466,0.0,0.0
-0.34721312,0.09026581,0.019131111,0.0,0.0
0.30515033,-0.1375949,0.17179309,0.0,0.0
-0.45690638,-0.022384973,-0.00080034154,0.0,0.0
0.6341708,-0.039876357,-0.05533052,0.0,0.0
-0.38998795,-0.19236067,0.11270772,0.0,0.0
0.5185544,0.32009074,-0.08131277,0.0,0.0
0.29258513,0.004390501,-0.04195607,0.0,0.0
0.76798403,-0.12600033,0.057593647,0.0,0.0
0.19805448,-0.036842722,-0.08092346,0.0,0.0
0.42466578,0.068552725,-0.12980118,0.0,0.0
-0.96120226,-0.012586575,-0.1233749,0.0,0.0
-0.5315476,-0.14055616,0.18069527,0.0,0.0
0.32798684,0.20112897,0.0846002,0.0,0.0
-0.024739215,-0.15850258,-0.13637236,0.0,0.0
0.67622465,0.2705283,-0.24269226,0.0,0.0
-0.12741837,-0.014546621,-0.07596306,0.0,0.0
0.053318318,-0.18787798,-0.050922506,0.0,0.0
-0.5658137,0.08813398,-0.1221046,0.0,0.0
0.57855874,-0.11457519,0.19696483,0.0,0.0
0.62600976,-0.038967256,-0.15191609,0.0,0.0
0.1479633,0.12955977,-0.12621436,0.0,0.0
-0.5255344,-0.21243145,0.027529595,0.0,0.0
0.39479092,-0.0030606254,-0.021904236,0.0,0.0
-0.20153078,-0.05382787,0.037273712,0.0,0.0
-0.72783595,0.08150758,-0.0854043,0.0,0.0
0.15179516,-0.0397245,0.09722415,0.0,0.0
0.7277657,0.5797555,-0.039644506,0.0,0.0
0.37495062,-0.13083161,-0.04768465,0.0,0.0
0.14641678,-0.09836922,-0.06744008,0.0,0.0
-0.5951303,-0.27110592,0.04475704,0.0,0.0
-0.37432483,0.13888273,-0.051920485,0.0,0.0
-0.4662375,-0.24172734,0.010725383,0.0,0.0
-0.81481564,-0.051107585,-0.16436249,0.0,0.0
0.3854747,-0.12353857,-0.031281475,0.0,0.0
-0.33427623,0.012933971,-0.16153337,0.0,0.0
-0.5865112,-0.32096773,0.18491234,0.0,0.0
-0.1465662,-0.29256034,0.025255967,0.0,0.0
-0.6036588,0.22965394,-0.10969308,0.0,0.0
0.6749385,-0.062179558,-0.16467592,0.0,0.0
0.5773501,-0.2174359,0.20807149,0.0,0.0
0.062350005,0.0725024,-0.07035068,0.0,0.0
-0.4019299,0.0013246223,-0.016745647,0.0,0.0
0.5027942,-0.05722631,0.070207894,0.0,0.0
0.26439583,0.088990666,-0.12968142,0.0,0.0
0.009729426,0.041774206,-0.04655427,0.0,0.0
0.22499464,-0.21560171,0.105679706,0.0,0.0
-0.56322646,-0.18450639,0.111079164,0.0,0.0
0.31018206,-0.066543,0.13685742,0.0,0.0
0.5534681,0.07589027,-0.06366387,0.0,0.0
-0.23283437,-0.07758708,-0.01683262,0.0,0.0
-0.24344145,-0.0073483074,-0.10552557,0.0,0.0
0.40095186,0.25889072,-0.14780036,0.0,0.0
0.12462212,0.3998706,-0.24845314,0.0,0.0
0.63336223,0.09456757,-0.05093778,0.0,0.0
-0.7130824,-0.26452634,0.0021559456,0.0,0.0
0.25969067,0.14905559,-0.047208145,0.0,0.0
-0.2552946,0.0866927,-0.113792405,0.0,0.0
-0.3506592,-0.08824288,0.03536888,0.0,0.0
0.3824537,0.17570439,-0.12722965,0.0,0.0
1.0642233,0.15379137,-0.046223905,0.0,0.0
-0.66727984,-0.23042995,-0.10218531,0.0,0.0
0.14800586,0.04263027,-0.10895368,0.0,0.0
-0.34490958,0.22943649,-0.048075177,0.0,0.0
-0.41453817,-0.103249304,-0.027471103,0.0,0.0
0.073755205,0.014883677,-0.045133892,0.0,0.0
-0.1706858,0.0866375,-0.07951857,0.0,0.0
0.6231845,-0.08524825,0.10981674,0.0,0.0
-0.8007666,-0.17630261,0.0069126785,0.0,0.0
-0.31744602,-0.22771823,0.05152444,0.0,0.0
-0.2561244,-0.0013830529,-0.20254934,0.0,0.0
-0.49666822,-0.15294698,0.19518979,0.0,0.0
0.31236678,-0.04492751,0.0782758,0.0,0.0
0.10105235,-0.024231205,0.017336097,0.0,0.0
-0.15334637,-0.110500984,-0.12197423,0.0,0.0
-0.804437,-0.054502737,-0.073145315,0.0,0.0
-0.30761236,0.112559795,-0.05550075,0.0,0.0
-0.6589186,-0.1704605,0.10251683,0.0,0.0
-0.3927235,-0.22003381,0.07130982,0.0,0.0
0.5567536,-0.16451868,0.18634719,0.0,0.0
-0.0017264151,-0.18006635,0.28315452,0.0,0.0
0.04438192,-0.042946164,-0.17008433,0.0,0.0
0.46985564,-0.18844397,0.18219663,0.0,0.0
-0.11253339,0.06942226,-0.13252124,0.0,0.0
0.5772671,-0.032883845,-0.01965982,0.0,0.0
0.6625146,-0.14320098,-0.010003993,0.0,0.0
0.5524238,0.14700672,-0.026844008,0.0,0.0
0.07848303,-0.002181693,0.041587014,0.0,0.0
-0.12546378,-0.045528464,0.17098148,0.0,0.0
-0.037550423,-0.08051139,0.20347735,0.0,0.0
0.24942963,-0.10493818,0.18922578,0.0,0.0
0.33679533,0.08098251,-0.0051522395,0.0,0.0
0.0229877,-0.22992627,0.08219543,0.0,0.0
0.35952917,0.026438178,0.13911693,0.0,0.0
-0.3848719,-0.07451982,0.0144966,0.0,0.0
-0.16118938,-0.19544478,0.16521887,0.0,0.0
-0.2437301,0.021323213,-0.12786734,0.0,0.0
-0.10042913,-0.15881513,0.095949955,0.0,0.0
0.5068725,0.09491708,-0.06229474,0.0,0.0
0.02879111,-0.19953808,0.23242532,0.0,0.0
0.1092116,0.052234206,-0.06722882,0.0,0.0
0.070966445,-0.115722455,-0.0054019988,0.0,0.0
-0.5243793,0.11558473,-0.1760737,0.0,0.0
-0.76781803,-0.1451554,-0.08325545,0.0,0.0
0.3249588,-0.21510832,-0.05257066,0.0,0.0
0.5839683,-0.13440037,-0.16334534,0.0,0.0
-0.72503525,0.04912294,-0.1214374,0.0,0.0
-0.6508538,0.17299572,-0.03391511,0.0,0.0
-0.35216287,-0.035718985,0.049983732,0.0,0.0
0.17908986,-0.09115273,0.0077854204,0.0,0.0
0.4565577,0.01165419,-0.009656023,0.0,0.0
-0.5621831,0.37684634,-0.083699204,0.0,0.0
0.5440442,0.049325313,-0.1523437,0.0,0.0
0.0042637917,0.27978247,-0.0895301,0.0,0.0
0.41158062,0.19791338,-0.09862399,0.0,0.0
-0.2175008,0.25255835,-0.08172011,0.0,0.0
-0.17789456,-0.08491801,-0.061683707,0.0,0.0
0.3018233,-0.10834358,0.031986084,0.0,0.0
0.6658577,-0.121124305,0.20261052,0.0,0.0
-0.91399854,-0.19360355,0.016348232,0.0,0.0
-0.29170877,-0.05061645,0.13664103,0.0,0.0
-0.70621604,-0.08458267,0.11009971,0.0,0.0
0.12917078,0.054217987,-0.08762861,0.0,0.0
-0.11413198,-0.039529372,-0.20636284,0.0,0.0
0.23851693,-0.16565341,0.23704377,0.0,0.0
-0.25614408,0.010204273,0.001256627,0.0,0.0
0.27535495,0.33472675,-0.09972623,0.0,0.0
0.54646665,-0.09006615,0.19431293,0.0,0.0
0.06179239,-0.10670828,-0.0011954099,0.0,0.0
-0.16852187,-0.070897594,-0.05345894,0.0,0.0
0.50351214,0.20044237,-0.08840789,0.0,0.0
0.12224165,0.051170178,-0.16870505,0.0,0.0
-0.55913615,0.103914514,-0.04001903,0.0,0.0
0.26831222,0.039856125,-0.089612916,0.0,0.0
0.70327795,-0.15642491,-0.09657216,0.0,0.0
0.8364233,-0.09446537,-0.033711296,0.0,0.0
-0.48166016,0.0012309505,-0.1376155,0.0,0.0
-0.48790023,-0.22400096,-0.031939227,0.0,0.0
0.60896355,-0.107136175,-0.12195126,0.0,0.0
0.18115781,-0.21339783,-0.10964832,0.0,0.0
-0.7511311,0.10957975,-0.11823927,0.0,0.0
-0.75978553,0.053193647,0.023308236,0.0,0.0
-0.36524507,-0.14090857,-0.081569485,0.0,0.0
-0.8745468,0.07794594,0.033977695,0.0,0.0
-0.13731149,0.046009555,-0.1412228,0.0,0.0
0.15230462,0.104642324,-0.1087102,0.0,0.0
0.27280113,-0.25641134,0.09382495,0.0,0.0
0.6052645,0.19243422,0.05076191,0.0,0.0
0.24362941,0.031463645,-0.08138626,0.0,0.0
-0.48323703,-0.047280475,-0.02846786,0.0,0.0
-0.5449313,0.025420934,-0.09849777,0.0,0.0
0.7666756,-0.111242406,-0.07585058,0.0,0.0
0.20813137,-0.118126065,0.18652497,0.0,0.0
0.48718882,-0.23895918,-0.032960508,0.0,0.0
-0.04085793,-0.091759704,-0.049186327,0.0,0.0
0.1398259,-0.22825241,0.03542086,0.0,0.0
-0.6620469,-0.14503896,0.033296153,0.0,0.0
-0.046675976,-0.0049330555,-0.08282818,0.0,0.0
-0.4325032,-0.16741376,0.21727887,0.0,0.0
0.1811361,0.37009275,-0.07541702,0.0,0.0
-0.22106934,0.25730804,-0.045948092,0.0,0.0
-0.101734616,-0.062411413,0.09002631,0.0,0.0
-0.14100115,-0.023674209,-0.047448684,0.0,0.0
0.4930774,0.1638279,-0.12815812,0.0,0.0
-0.87677646,-0.0025673371,-0.100847766,0.0,0.0
0.46851146,-0.27189705,0.011003734,0.0,0.0
-0.24577186,0.118723676,-0.14489448,0.0,0.0
0.041684333,-0.2656831,0.20546624,0.0,0.0
0.41039827,0.06602018,-0.012825256,0.0,0.0
0.021677798,-0.03389654,0.12023671,0.0,0.0
0.22580528,0.032834824,-0.16638362,0.0,0.0
0.066085495,0.1738825,-0.009728687,0.0,0.0
-0.61112165,0.09002899,-0.11405164,0.0,0.0
-0.14524429,0.026061969,-0.06011578,0.0,0.0
-0.6465764,-0.017416507,-0.02461113,0.0,0.0
0.67476165,0.39194456,-0.13679053,0.0,0.0
-0.60488075,-0.13931447,-0.14345348,0.0,0.0
0.69054693,-0.09852584,-0.13828088,0.0,0.0
-0.23791681,-0.012496445,-0.12023192,0.0,0.0
-0.866889,-0.037889678,0.052450255,0.0,0.0
-0.541646,-0.0647144,0.03711885,0.0,0.0
0.63212967,-0.05204214,-0.13378668,0.0,0.0
-0.23893502,-0.05984526,0.09215743,0.0,0.0
-0.66373444,0.021314465,-0.051796112,0.0,0.0
0.49745038,0.039684664,0.040835984,0.0,0.0
0.6359746,-0.15765613,-0.11163356,0.0,0.0
0.4389545,0.0339762,-0.052800454,0.0,0.0
-0.4434861,-0.15073805,0.1718963,0.0,0.0
-0.000889162,-0.07201911,-0.12093208,0.0,0.0
-0.87086225,-0.08135942,-0.040479176,0.0,0.0
0.028135782,-0.05753878,-0.16759022,0.0,0.0
0.6412902,-0.0065023536,-0.019951109,0.0,0.0
-0.15788975,-0.011323822,-0.03243645,0.0,0.0
0.32480955,0.006673796,0.07008101,0.0,0.0
0.70401907,0.3800557,0.10416609,0.0,0.0
-0.38233784,-0.096066944,0.15940168,0.0,0.0
0.12884331,0.027475778,-0.05859079,0.0,0.0
-0.26705307,0.19881812,-0.06811481,0.0,0.0
0.10449655,0.013724155,-0.1143697,0.0,0.0
0.58327925,0.07548457,-0.07545123,0.0,0.0
-0.3158875,0.18373914,-0.084758066,0.0,0.0
0.3210593,-0.041275628,0.08072948,0.0,0.0
0.021722201,-0.18700199,0.10623507,0.0,0.0
-0.5556272,-0.18798944,0.16646792,0.0,0.0
0.072713755,0.32408378,-0.11591386,0.0,0.0
0.8839253,0.074603915,0.04418749,0.0,0.0
-0.8549331,-0.08567941,-0.046216764,0.0,0.0
-0.25358373,-0.20663616,-0.027279345,0.0,0.0
-0.23087615,0.11204251,-0.008638215,0.0,0.0
0.56244594,-0.2067205,0.0013201272,0.0,0.0
0.5022372,-0.24847868,0.10177779,0.0,0.0
-0.48305395,-0.117048375,0.043059655,0.0,0.0
0.39937082,-0.020767266,-0.009073185,0.0,0.0
-0.086026646,-0.19584377,0.08518022,0.0,0.0
-0.8210708,-0.04531023,-0.037516847,0.0,0.0
0.34265584,0.30640987,-0.067355834,0.0,0.0
0.4105162,0.26361862,0.04217243,0.0,0.0
-0.29612803,0.054084312,-0.034523096,0.0,0.0
-0.21373975,-0.119892076,0.14683732,0.0,0.0
0.4834423,-0.058632612,-0.18705429,0.0,0.0
-0.48514584,-0.258987,-0.027817803,0.0,0.0
0.9900678,-0.052077584,0.03391242,0.0,0.0
0.0086404085,0.030256003,-0.13808559,0.0,0.0
-0.26202852,-0.12637098,0.14395638,0.0,0.0
-0.4483546,0.26614162,-0.10522918,0.0,0.0
0.42504758,-0.16405538,-0.042062752,0.0,0.0
-0.38514408,0.17651418,-0.05996246,0.0,0.0
-0.2387887,-0.22797842,0.16915832,0.0,0.0
0.789118,0.038030095,-0.12635626,0.0,0.0
-0.6202983,-0.020480994,-0.11316865,0.0,0.0
0.5360793,0.04102665,-0.0988924,0.0,0.0
0.4412953,-0.18435489,0.281564,0.0,0.0
0.5951614,-0.012379145,-0.15990728,0.0,0.0
0.65644485,0.015976153,0.09884901,0.0,0.0
-0.6156452,-0.13988625,-0.1024703,0.0,0.0
-1.01313,0.1250545,-0.22329158,0.0,0.0
0.71297836,0.31554058,0.0033434238,0.0,0.0
-0.3705952,-0.17668596,0.06454048,0.0,0.0
-0.21350902,0.058676664,-0.122189194,0.0,0.0
-0.43917355,-0.21702082,0.23615465,0.0,0.0
0.3563878,0.2719979,-0.053308167,0.0,0.0
-0.5884127,-0.068421,-0.054796543,0.0,0.0
-0.1417831,-0.11411547,0.13360836,0.0,0.0
0.1278308,-0.013548789,-0.10482068,0.0,0.0
-0.2669651,-0.2962812,0.0005409177,0.0,0.0
-0.51625156,-0.07824495,0.11164777,0.0,0.0
-0.7521729,0.058838297,-0.116238676,0.0,0.0
-0.16921388,-0.12317547,0.24783382,0.0,0.0
0.3503117,-0.15382591,0.023270866,0.0,0.0
0.30782753,0.033218488,-0.15227248,0.0,0.0
0.238094,0.24876896,0.1206651,0.0,0.0
-0.6771654,-0.20246592,0.08505127,0.0,0.0
-0.33141187,-0.07542057,0.073770784,0.0,0.0
-0.792015,0.35509363,-0.0010382337,0.0,0.0
0.12135097,0.03202744,-0.15070653,0.0,0.0
0.7573844,0.0343095,-0.09939319,0.0,0.0
-0.84938574,-0.062187213,-0.019019047,0.0,0.0
0.02809888,-0.018051544,0.10434278,0.0,0.0
0.5211967,0.11428527,-0.010149731,0.0,0.0
-0.6484478,-0.12059105,0.0725493,0.0,0.0
0.27358148,0.1340092,-0.0837914,0.0,0.0
0.04426898,-0.076826975,-0.0036872707,0.0,0.0
0.023539677,0.0719806,-0.051245153,0.0,0.0
0.500733,-0.055565253,0.02021576,0.0,0.0
-0.8404586,0.053934935,-0.039991233,0.0,0.0
-0.71716404,0.06661949,0.029568791,0.0,0.0
-0.54108155,0.18606098,-0.080351606,0.0,0.0
-0.42629847,-0.07021853,0.042493578,0.0,0.0
0.50673264,0.029525511,-0.054614812,0.0,0.0
0.1154991,0.028347513,-0.0154698305,0.0,0.0
-0.1104815,0.04179438,-0.10123988,0.0,0.0
-0.3972145,-0.26815173,-0.08585167,0.0,0.0
-0.41221738,-0.11873189,-0.035089597,0.0,0.0
0.568564,0.07257973,-0.10385506,0.0,0.0
-0.7611977,0.025701141,-0.096074924,0.0,0.0
0.52480835,-0.19417223,0.039070994,0.0,0.0
0.10938592,-0.16346864,0.2315352,0.0,0.0
0.69238174,0.026578424,-0.12523824,0.0,0.0
0.14825436,-0.04906617,0.057367828,0.0,0.0
0.34078127,0.30177456,-0.021810416,0.0,0.0
0.07469719,-0.009566575,-0.07856937,0.0,0.0
-0.2963646,0.18415487,-0.085626714,0.0,0.0
0.166971,-0.24136661,0.034996808,0.0,0.0
-0.5350931,-0.20812549,0.08450812,0.0,0.0
-0.010429448,0.23089932,-0.029170714,0.0,0.0
0.3055828,0.0020098067,-0.00974941,0.0,0.0
-0.026482606,0.11485428,-0.15398413,0.0,0.0
0.06130501,-0.17235322,0.15772219,0.0,0.0
-0.3910701,-0.042188972,0.14983685,0.0,0.0
0.5566694,0.009251723,-0.10913887,0.0,0.0
0.21437636,-0.11577547,-0.010959301,0.0,0.0
-1.0864134,0.09331792,-0.16440965,0.0,0.0
0.26932803,-0.09767648,-0.0005132407,0.0,0.0
-0.11066544,0.10210029,-0.15590794,0.0,0.0
0.7342397,0.023827227,-0.1319787,0.0,0.0
0.45963147,-0.015138371,0.088964686,0.0,0.0
-0.29390857,0.074746996,-0.06430116,0.0,0.0
-0.047484882,-0.06367539,0.044698257,0.0,0.0
0.19677484,0.13523343,-0.2330645,0.0,0.0
0.019151423,0.048648287,-0.05184421,0.0,0.0
-0.12887266,0.05557221,-0.039108954,0.0,0.0
0.090332665,0.037578255,-0.1253576,0.0,0.0
0.16374247,0.10473001,-0.035668492,0.0,0.0
0.9112804,0.35592782,-0.09393349,0.0,0.0
-0.20205289,-0.14768855,-0.047054466,0.0,0.0
-0.30853,0.03710799,-0.0799963,0.0,0.0
0.5765732,-0.19584969,-0.05821965,0.0,0.0
0.08771728,0.10483582,-0.014181397,0.0,0.0
-0.38671628,0.14773673,-0.10486479,0.0,0.0
-0.27458495,-0.00080077513,-0.13118225,0.0,0.0
0.53334147,0.038396403,-0.1463849,0.0,0.0
0.22305928,-0.18376812,0.06327931,0.0,0.0
0.28981194,0.11599809,-0.10513646,0.0,0.0
0.14318581,0.17758924,0.10918744,0.0,0.0
0.14701828,0.07998137,-0.0933453,0.0,0.0
-0.6665733,-0.2178542,-0.028769743,0.0,0.0
-0.41501662,-0.19194686,0.06881445,0.0,0.0
0.36484185,0.031522285,-0.13268307,0.0,0.0
-0.51173747,-0.013529623,0.16033384,0.0,0.0
-0.59465253,0.022397544,-0.063070185,0.0,0.0
-0.68738395,-0.06840595,-0.13483888,0.0,0.0
0.44106323,0.40942213,0.06901709,0.0,0.0
-0.37843147,0.3163655,-0.10990266,0.0,0.0
0.55537784,0.24364378,-0.102256045,0.0,0.0
-0.17403135,0.006753529,-0.08890572,0.0,0.0
-0.019552536,0.068775296,-0.11581805,0.0,0.0
-0.008493242,-0.04302115,-0.05576295,0.0,0.0
0.043691702,-0.05260924,0.1009795,0.0,0.0
0.47579336,0.18258566,-0.15551907,0.0,0.0
-0.24847469,0.23279256,-0.06521668,0.0,0.0
-0.24422425,-0.3045704,0.49924144,0.0,0.0
-0.4914236,0.116115496,-0.1628739,0.0,0.0
-0.09746627,-0.11083642,0.06376164,0.0,0.0
0.45192668,-0.048381425,0.048763152,0.0,0.0
0.117170215,0.18101908,-0.082160994,0.0,0.0
-0.39689457,-0.07362124,0.10249948,0.0,0.0
-0.8371853,0.0011799331,-0.11047554,0.0,0.0
-0.3052418,-0.102061495,0.14554045,0.0,0.0
-0.74584895,-0.06080585,0.08838981,0.0,0.0
0.26995876,-0.16034527,-0.06199778,0.0,0.0
-0.8541921,-0.076340735,-0.10771874,0.0,0.0
-0.77134573,-0.12979466,-0.008752918,0.0,0.0
-0.3300051,0.027348509,-0.113916926,0.0,0.0
0.42850712,-0.16364935,-0.08877565,0.0,0.0
0.53885627,-0.214031,0.018942224,0.0,0.0
-0.40624544,-0.16645205,0.062792726,0.0,0.0
0.27742586,0.023852283,-0.15419282,0.0,0.0
-0.8177999,-0.1090594,0.04131736,0.0,0.0
-0.19242318,-0.111094214,0.07804662,0.0,0.0
-0.48021662,0.22998312,-0.104093716,0.0,0.0
0.21233362,0.041668423,-0.004554411,0.0,0.0
-0.26232657,-0.01832981,-0.08388579,0.0,0.0
0.5046477,0.026604872,-0.030299239,0.0,0.0
-0.76597095,0.01858328,0.03600841,0.0,0.0
0.34992364,0.22308572,-0.11580533,0.0,0.0
0.42661148,-0.094145,-0.05546562,0.0,0.0
-0.2619019,0.0788227,-0.13619415,0.0,0.0
0.44307384,0.22418171,-0.09733637,0.0,0.0
-0.3520809,-0.19059944,0.16833338,0.0,0.0
0.37952244,-0.08733211,-0.02917363,0.0,0.0
0.36546707,0.02290285,0.022838866,0.0,0.0
-0.036595315,-0.11786837,-0.17663458,0.0,0.0
0.24422136,-0.29878458,-0.10939606,0.0,0.0
-0.76682043,-0.083818026,-0.100876495,0.0,0.0
0.19439775,0.025196925,-0.0035654102,0.0,0.0
0.49598616,-0.24895489,0.0994869,0.0,0.0
-0.26176223,0.033313356,-0.14732592,0.0,0.0
0.2666676,-0.0984218,-0.009766379,0.0,0.0
-0.0879465,-0.17060353,0.029931579,0.0,0.0
-0.7353919,0.058362477,-0.099982716,0.0,0.0
0.14250466,-0.25933012,0.12626128,0.0,0.0
0.040407438,-0.014789634,-0.013737278,0.0,0.0
-0.63815767,-0.15387921,-0.12447664,0.0,0.0
0.6234683,0.10885302,-0.09493876,0.0,0.0
0.73691654,-0.023296786,-0.08635855,0.0,0.0
0.45720857,-0.21474272,-0.17294654,0.0,0.0
-0.06052176,-0.02753062,-0.031475406,0.0,0.0
-0.070529155,-0.15593468,-0.04280364,0.0,0.0
0.37699002,-0.20896333,-0.083411746,0.0,0.0
-0.8687793,-0.2776138,0.063294895,0.0,0.0
-0.33836502,0.058164097,-0.14521074,0.0,0.0
-0.4203282,0.14163795,-0.118951276,0.0,0.0
-0.13966502,-0.01635591,0.07121782,0.0,0.0
0.091246344,0.096226215,0.06297697,0.0,0.0
-0.6085281,-0.29745305,0.047876317,0.0,0.0
-0.117276266,0.22524141,-0.13704763,0.0,0.0
-0.07156426,0.056455847,-0.026579723,0.0,0.0
-0.0040413747,0.039156005,-0.15723796,0.0,0.0
0.1873546,0.22676554,-0.08042789,0.0,0.0
0.31909618,0.19217885,0.0039077867,0.0,0.0
-0.40198755,-0.12443437,0.13559633,0.0,0.0
0.48939344,-0.006377526,-0.040637877,0.0,0.0
0.61450857,0.10616101,-0.058777455,0.0,0.0
0.43625343,-0.20507859,0.083540365,0.0,0.0
0.49610728,-0.1825532,0.12919182,0.0,0.0
-0.460206,-0.13648863,0.17384331,0.0,0.0
-0.1846718,-0.12503432,0.19300096,0.0,0.0
-0.37441367,-0.25998795,0.14841157,0.0,0.0
-0.34020966,0.04252564,-0.053182095,0.0,0.0
-0.0005615159,0.16046408,-0.017711723,0.0,0.0
-0.12817174,0.007908035,-0.11070132,0.0,0.0
-0.03456195,-0.09435629,0.20256428,0.0,0.0
0.57464194,0.01663411,-0.13745977,0.0,0.0
0.16867653,-0.19962186,-0.064113684,0.0,0.0
-0.22800446,-0.15205348,0.13572198,0.0,0.0
0.52672327,-0.0916531,0.12521183,0.0,0.0
-0.677524,-0.18212657,0.057165872,0.0,0.0
-0.92217314,-0.002540796,-0.13566725,0.0,0.0
-0.24499956,0.009916369,-0.003063877,0.0,0.0
0.09264221,0.21324524,0.19805546,0.0,0.0
-0.12467073,-0.06401018,0.10475858,0.0,0.0
-0.6366628,0.010925934,-0.11582259,0.0,0.0
-0.8994852,-0.11616867,-0.011455265,0.0,0.0
-0.15237242,-0.1446129,0.13734049,0.0,0.0
0.50787747,-0.11041066,-0.1520085,0.0,0.0
0.6998524,-0.10040724,0.05170035,0.0,0.0
0.7745916,-0.028599657,-0.106762044,0.0,0.0
0.459471,-0.12829828,-0.15909411,0.0,0.0
0.45334405,0.2145879,0.09283839,0.0,0.0
-0.27203766,-0.1322352,0.17344995,0.0,0.0
-0.23511207,-0.0048225825,-0.02884349,0.0,0.0
0.44715893,-0.05784776,-0.017311467,0.0,0.0
0.47223902,-0.19353454,0.29482225,0.0,0.0
-0.059517562,-0.018618628,0.009374128,0.0,0.0
-0.0550511,-0.069714904,-0.10450705,0.0,0.0
-0.16990492,0.13563544,-0.05677245,0.0,0.0
0.26640153,-0.022925958,-0.15936679,0.0,0.0
0.5225756,-0.010205119,-0.16475315,0.0,0.0
-0.21246628,-0.006794356,0.014439439,0.0,0.0
0.29423165,0.042995125,-0.031386327,0.0,0.0
0.37528637,0.41300035,-0.08812156,0.0,0.0
-0.10180186,0.15497501,-0.0930609,0.0,0.0
-0.46355322,0.17625771,0.11398882,0.0,0.0
0.062246576,-0.01641665,0.020132728,0.0,0.0
-0.2425697,-0.09854512,-0.05779012,0.0,0.0
0.036129463,-0.06571091,-0.16110626,0.0,0.0
-0.16448228,-0.057233363,-0.1221224,0.0,0.0
-0.3652698,0.28472596,-0.0740824,0.0,0.0
0.37579706,0.02323254,0.031080838,0.0,0.0
0.44320223,-0.19446348,0.06342778,0.0,0.0
0.51225364,-0.05055306,-0.00756826,0.0,0.0
-0.35400814,0.21176915,-0.06303983,0.0,0.0
0.8567481,0.109670304,-0.10209661,0.0,0.0
-0.27957034,-0.14328831,-0.069175884,0.0,0.0
-0.6216785,0.0063522616,-0.029296769,0.0,0.0
0.19743305,-0.07820865,0.008827012,0.0,0.0
-0.37992087,-0.08160839,-0.08546821,0.0,0.0
0.18955548,-0.055977225,-0.05261421,0.0,0.0
0.17115343,0.14906971,-0.06838,0.0,0.0
0.10335795,0.07502013,0.029776158,0.0,0.0
-0.8279858,-0.01786345,-0.0060668103,0.0,0.0
0.040305045,-0.13217776,0.076251194,0.0,0.0
-0.21162757,0.2502276,-0.1024577,0.0,0.0
0.13480572,-0.11829823,-0.05079978,0.0,0.0
0.3838272,0.36373314,-0.017398238,0.0,0.0
0.104102135,-0.11703178,-0.22056194,0.0,0.0
0.31913024,-0.025000554,-0.12324404,0.0,0.0
-0.06145011,-0.06307366,-0.122399874,0.0,0.0
0.79554963,-0.053895477,0.05285695,0.0,0.0
-0.560649,-0.20822276,0.03396644,0.0,0.0
-0.0736847,0.14958468,-0.12913087,0.0,0.0
0.67146677,-0.14141369,-0.010044295,0.0,0.0
0.3088686,-0.25938377,0.051658887,0.0,0.0
-0.29132372,-0.28561825,0.16627535,0.0,0.0
0.1878848,-0.21853046,0.16870645,0.0,0.0
-0.06180067,0.09051902,0.06685853,0.0,0.0
-0.028533434,-0.06045158,0.087914236,0.0,0.0
0.6172441,-0.08444247,0.01995328,0.0,0.0
-0.5810711,0.060445897,-0.1039858,0.0,0.0
0.3362173,-0.1272398,-0.0809165,0.0,0.0
0.07191037,0.25820997,-0.076172166,0.0,0.0
-0.30605105,-0.0032049734,0.009820312,0.0,0.0
-0.5883123,0.23869446,-0.13286391,0.0,0.0
0.16908999,-0.19023305,0.044226333,0.0,0.0
0.17663077,0.055296704,-0.009119434,0.0,0.0
-0.6760367,-0.13881695,-0.04556417,0.0,0.0
-0.903637,0.12248459,-0.105281316,0.0,0.0
0.5516527,0.10424689,-0.05667149,0.0,0.0
0.20052105,0.08053251,-0.063196145,0.0,0.0
-0.45361677,-0.1905721,0.10809262,0.0,0.0
0.12012576,-0.21440941,0.1071897,0.0,0.0
-0.07394081,0.2932263,-0.06725855,0.0,0.0
0.7355048,-0.22160554,0.10122711,0.0,0.0
-0.11302754,-0.14781657,0.1141859,0.0,0.0
-0.7324188,-0.004362958,-0.10005361,0.0,0.0
0.6432492,0.40381202,-0.04290708,0.0,0.0
-0.5774323,0.017029587,0.005257874,0.0,0.0
0.10470562,-0.26892734,0.17003287,0.0,0.0
0.00545931,0.0066674934,-0.054008603,0.0,0.0
0.32203096,-0.11760443,-0.0024815216,0.0,0.0
-0.18572259,-0.1817253,0.17891796,0.0,0.0
-0.62955004,-0.2005143,0.1395365,0.0,0.0
-0.95352596,0.32299364,-0.08712604,0.0,0.0
0.59941506,0.055254374,-0.13413315,0.0,0.0
-0.19009966,-0.061569147,0.11206773,0.0,0.0
-0.38367018,0.0050468864,-0.11577039,0.0,0.0
-0.21960945,-0.09442571,-0.14674096,0.0,0.0
0.26901647,-0.081247024,0.01713479,0.0,0.0
-0.62322307,-0.103571095,-0.110031694,0.0,0.0
-0.11125205,0.054284222,-0.13053069,0.0,0.0
-0.14342892,-0.16479248,0.15587401,0.0,0.0
-0.63862115,0.25844803,-0.119199224,0.0,0.0
0.16619152,-0.04767464,-0.05118518,0.0,0.0
-0.5401553,-0.06326684,-0.1298157,0.0,0.0
0.38948998,0.18748043,-0.12276637,0.0,0.0
-0.8744912,0.099597365,-0.06547009,0.0,0.0
0.41156122,0.32287797,0.040581215,0.0,0.0
-0.061544053,-0.16668461,0.15542592,0.0,0.0
-0.013779174,0.0041145375,-0.14884259,0.0,0.0
-0.07602387,-0.088191725,0.07279605,0.0,0.0
0.04730288,0.08918856,-0.13547818,0.0,0.0
-0.6729235,-0.12430418,-0.04374878,0.0,0.0
-0.2446992,0.123020805,0.08033918,0.0,0.0
-0.012538825,-0.02504412,-0.019733028,0.0,0.0
-0.21377108,0.065687284,-0.059429523,0.0,0.0
0.3669225,-0.17962539,0.35033783,0.0,0.0
0.69396365,0.07366138,-0.13934764,0.0,0.0
-0.5196661,-0.1455015,0.1727185,0.0,0.0
-0.46650538,-0.00546599,0.024846816,0.0,0.0
0.3384725,-0.08042631,0.1474335,0.0,0.0
0.38378745,-0.017848844,-0.0004959519,0.0,0.0
-0.2818594,-0.12684855,0.14415444,0.0,0.0
0.15947491,-0.040764403,-0.12984666,0.0,0.0
-0.10219717,0.17635036,-0.097414635,0.0,0.0
0.16672194,0.37991711,-0.041543115,0.0,0.0
0.26208454,-0.17073174,0.06443763,0.0,0.0
0.35246462,0.16004509,-0.14890869,0.0,0.0
0.7558709,0.23469424,0.038308386,0.0,0.0
0.13643382,-0.19747561,-0.062487286,0.0,0.0
0.38568613,-0.17702149,-0.041448936,0.0,0.0
-0.58507997,-0.18276446,0.13248903,0.0,0.0
-0.0025496793,0.14381361,-0.13021447,0.0,0.0
0.373597,-0.001541495,-0.06335151,0.0,0.0
-0.25950298,-0.07524822,-0.10640584,0.0,0.0
0.88493073,-0.027922329,-0.04664563,0.0,0.0
-0.21781342,0.07019354,0.018234663,0.0,0.0
-0.037863415,0.10985144,-0.0027058253,0.0,0.0
0.2568487,-0.035458256,-0.07874238,0.0,0.0
-0.23483783,-0.11356802,0.21833001,0.0,0.0
0.20315553,0.020127263,0.039161604,0.0,0.0
-0.018788287,-0.076800935,0.14871676,0.0,0.0
-0.12431469,-0.07740075,0.13095103,0.0,0.0
-0.37269285,-0.0018369621,0.13322814,0.0,0.0
0.61926144,-0.22152863,0.021057589,0.0,0.0
-0.7271654,-0.18747,0.09819094,0.0,0.0
0.17276314,0.017963253,-0.063852675,0.0,0.0
-0.6476552,-0.20867056,-0.10444611,0.0,0.0
0.2740414,0.018585643,-0.09788222,0.0,0.0
-0.5809725,-0.23948261,-0.044781003,0.0,0.0
0.715015,-0.13630761,-0.15409942,0.0,0.0
-0.16850224,-0.03359373,0.33726645,0.0,0.0
0.8586199,-0.03825973,-0.086544655,0.0,0.0
-0.028287059,0.06409855,0.038525123,0.0,0.0
-0.5764694,0.02414245,-0.080059655,0.0,0.0
0.10459657,0.065514274,0.015158302,0.0,0.0
-0.30290318,-0.045446318,0.011300667,0.0,0.0
0.8792885,-0.077691175,0.073079675,0.0,0.0
0.62659687,-0.13983627,0.03897806,0.0,0.0
-0.2842368,-0.01115878,0.030261489,0.0,0.0
-0.08161324,-0.2130946,0.016504804,0.0,0.0
-0.4136238,-0.19540593,0.20911126,0.0,0.0
0.22265561,-0.2177772,0.17762215,0.0,0.0
0.21418023,0.35409203,0.060201246,0.0,0.0
-0.3599926,-0.011567341,-0.054498754,0.0,0.0
-0.25205716,0.075648084,0.013683163,0.0,0.0
-0.1179317,0.21789303,-0.0928093,0.0,0.0
-0.52086204,-0.2449499,0.11286653,0.0,0.0
-0.33830026,-0.12789549,0.14017034,0.0,0.0
-0.30737492,-0.13392885,-0.085907504,0.0,0.0
0.10462295,-0.002279313,0.031194704,0.0,0.0
0.49327627,-0.18974942,0.1708425,0.0,0.0
-0.15658447,0.1641992,-0.08038423,0.0,0.0
0.009772437,-0.35830635,0.32553652,0.0,0.0
-0.55256766,0.024512505,0.043173857,0.0,0.0
-0.35656986,-0.1634987,0.20338456,0.0,0.0
0.7597227,-0.34083727,0.022940006,0.0,0.0
-0.5225267,0.09529133,-0.15202616,0.0,0.0
0.16160138,-0.086181074,0.0069833044,0.0,0.0
0.5042142,0.19635187,-0.12474651,0.0,0.0
-0.1126792,-0.12592214,-0.018975683,0.0,0.0
-0.48091954,0.07451773,-0.050600626,0.0,0.0
-0.24060152,-0.10974201,-0.07798509,0.0,0.0
0.14511573,0.036668535,-0.10177015,0.0,0.0
0.0658107,-0.046873968,0.084450856,0.0,0.0
0.33862016,-0.1952537,0.057424113,0.0,0.0
0.57350785,0.272964,-0.043982144,0.0,0.0
0.28910592,0.21799536,-0.10752163,0.0,0.0
0.7611643,-0.007262879,-0.08108768,0.0,0.0
-0.35796404,-0.14722058,-0.11278883,0.0,0.0
-0.19507314,-0.03403802,0.037047658,0.0,0.0
-0.4040954,-0.13897829,0.08650556,0.0,0.0
0.3210532,0.29607487,-0.0491156,0.0,0.0
-0.062007714,-0.056425035,-0.10129532,0.0,0.0
0.48353073,-0.17138976,-0.009800247,0.0,0.0
0.56136185,-0.13090843,0.1399233,0.0,0.0
-0.07388812,-0.049709044,-0.0073512453,0.0,0.0
-0.64992523,0.41687217,-0.0774123,0.0,0.0
-0.733076,-0.24859264,-0.08231739,0.0,0.0
-0.2888471,0.24579239,-0.07937763,0.0,0.0
-0.14447983,0.09802436,-0.13523988,0.0,0.0
0.5500911,-0.005939468,0.0084499745,0.0,0.0
-0.41729784,-0.14379881,0.20596632,0.0,0.0
0.40581703,0.23399228,-0.13374963,0.0,0.0
-0.86733544,-0.13844487,-0.027235867,0.0,0.0
-0.65988964,0.15502188,-0.0404145,0.0,0.0
0.5484509,0.031687234,-0.088146426,0.0,0.0
-0.83034474,0.011462447,-0.06254975,0.0,0.0
0.0321319,0.0626697,-0.011349328,0.0,0.0
0.41999778,-0.09558213,0.21644446,0.0,0.0
-0.47762993,-0.19810443,-0.06093307,0.0,0.0
0.5755781,-0.15576468,-0.0768809,0.0,0.0
0.2653648,0.14124466,-0.1557144,0.0,0.0
0.42586565,0.0063367668,-0.028097048,0.0,0.0
0.15517712,-0.03056018,-0.09102007,0.0,0.0
0.33027035,0.30512923,-0.041602705,0.0,0.0
0.011631871,-0.010390416,-0.06340027,0.0,0.0
-0.6349335,-0.20066811,0.17762122,0.0,0.0
0.08777029,-0.055694625,-0.03308211,0.0,0.0
0.1352726,-0.13342206,-0.08525905,0.0,0.0
0.09590949,0.090686455,-0.15645052,0.0,0.0
0.5007033,0.02972423,-0.01354574,0.0,0.0
0.2457842,0.28203,-0.17409588,0.0,0.0
0.05233742,-0.008483758,0.018266328,0.0,0.0
-0.10954735,-0.098066434,0.13837273,0.0,0.0
-0.06486267,0.104741804,-0.12210011,0.0,0.0
0.2781275,-0.1821332,-0.058222175,0.0,0.0
0.3212449,-0.12417058,0.07890219,0.0,0.0
-0.657315,-0.19968039,0.13878427,0.0,0.0
-0.8660844,-0.029633243,-0.09787974,0.0,0.0
0.3771552,-0.06770668,0.09723105,0.0,0.0
-0.029218977,-0.11973664,0.0104566505,0.0,0.0
0.08409733,-0.0855322,-0.16910562,0.0,0.0
0.56029654,-0.15938346,0.16480365,0.0,0.0
0.038340867,-0.076527834,-0.0052219704,0.0,0.0
-0.31773654,0.21468116,-0.1059287,0.0,0.0
0.34768465,0.20448774,-0.13578966,0.0,0.0
-0.23728506,-0.0952398,-0.033413377,0.0,0.0
-0.7927003,-0.15311344,-0.04086948,0.0,0.0
-0.12618825,-0.044335775,0.09349924,0.0,0.0
0.17583355,-0.32010746,0.22931561,0.0,0.0
-0.18607274,0.025043411,-0.101140484,0.0,0.0
-0.24921358,0.3563373,-0.06279697,0.0,0.0
0.10286118,-0.15586124,-0.037988074,0.0,0.0
-0.7182316,-0.19079232,-0.14035083,0.0,0.0
-0.34720933,0.253495,-0.072878614,0.0,0.0
-0.47924504,0.028538588,-0.06291647,0.0,0.0
0.5884789,-0.02759056,-0.19009712,0.0,0.0
0.4827831,-0.07826715,-0.078522794,0.0,0.0
-0.1167571,-0.07927249,0.1520784,0.0,0.0
0.21425872,-0.14403114,0.031050911,0.0,0.0
-0.06924132,0.23048842,-0.05833935,0.0,0.0
0.862945,0.089058354,-0.12506728,0.0,0.0
0.55512875,0.39464596,-0.08151253,0.0,0.0
0.76687866,0.032041576,-0.099412486,0.0,0.0
-0.7740111,-0.11533732,-0.13273403,0.0,0.0
-0.03595362,-0.19244395,0.10811909,0.0,0.0
-0.71167725,0.02165774,-0.15631665,0.0,0.0
-0.44121477,0.013324421,0.22080497,0.0,0.0
0.027318949,-0.26948187,0.21701717,0.0,0.0
0.33868662,0.07919004,-0.13966793,0.0,0.0
-0.0013349195,-0.06204067,0.097919755,0.0,0.0
0.2729506,0.11162421,-0.14546636,0.0,0.0
0.33588994,0.29105964,-0.09762166,0.0,0.0
0.5171538,0.14363505,0.03451523,0.0,0.0
-0.12574838,-0.062619865,0.1613148,0.0,0.0
-0.9740233,0.15934712,-0.15955658,0.0,0.0
0.19177394,-0.19792704,0.12208792,0.0,0.0
0.21310025,0.09488028,-0.1361307,0.0,0.0
-0.75252116,0.0070917136,-0.13821922,0.0,0.0
0.1356163,0.013027488,0.28627944,0.0,0.0
0.25407928,0.15580982,0.020482935,0.0,0.0
-0.781884,-0.117507465,0.011677362,0.0,0.0
0.086123876,0.048263896,-0.15875897,0.0,0.0
-0.72054166,-0.06440115,0.0372313,0.0,0.0
0.5130519,-0.0004786458,-0.18751049,0.0,0.0
0.5507977,-0.16979152,-0.049165074,0.0,0.0
-0.27195838,-0.106081955,-0.0876748,0.0,0.0
-0.18145892,-0.070104755,-0.114824265,0.0,0.0
-0.01958134,0.21091938,-0.086004876,0.0,0.0
0.56914175,0.054579053,-0.08993478,0.0,0.0
-0.58928823,0.060279734,-0.10702673,0.0,0.0
0.20644973,-0.08528048,0.09419961,0.0,0.0
0.54530394,0.029381553,-0.062613785,0.0,0.0
-0.07054688,-0.09969815,-0.074976064,0.0,0.0
-0.44139394,0.20405334,-0.09316503,0.0,0.0
0.09829036,-0.18648002,-0.053405304,0.0,0.0
0.4701417,0.0050067925,-0.14331424,0.0,0.0
0.30512643,0.0062195202,-0.067294136,0.0,0.0
0.15088288,-0.2708302,0.21189776,0.0,0.0
0.48652333,-0.18203789,0.15093805,0.0,0.0
-0.10896525,-0.036433183,0.06271649,0.0,0.0
0.23412603,0.21466316,0.012974939,0.0,0.0
0.120181255,0.01814408,-0.08263927,0.0,0.0
0.67820567,0.22711957,0.018637732,0.0,0.0
0.079020225,0.04725026,-0.12807938,0.0,0.0
-0.9992309,0.18528403,-0.30369216,0.0,0.0
0.32724825,0.35880217,-0.04596128,0.0,0.0
0.47081986,0.04611616,0.10414393,0.0,0.0
0.5488264,-0.08553291,-0.10562258,0.0,0.0
0.05234733,-0.005354975,-0.06979897,0.0,0.0
-0.56960255,-0.07332717,0.0086675845,0.0,0.0
0.51377225,0.17229222,-0.103207156,0.0,0.0
0.2672469,-0.14902584,0.22648177,0.0,0.0
0.78640926,-0.07060483,0.016252022,0.0,0.0
0.2520074,-0.052110963,-0.06667294,0.0,0.0
-0.13567503,-0.23519829,0.1673595,0.0,0.0
-0.53860235,-0.1808117,0.1869864,0.0,0.0
0.35116777,0.08815938,-0.13602775,0.0,0.0
0.17435868,0.014670646,0.016282763,0.0,0.0
-0.4884417,-0.123375304,-0.0017540097,0.0,0.0
0.107759275,0.03220807,0.023615845,0.0,0.0
-0.5143366,-0.2321959,0.09811213,0.0,0.0
-0.1065359,-0.22419187,0.049761016,0.0,0.0
0.47634107,-0.16482398,0.24334447,0.0,0.0
0.60818046,0.13663332,-0.063531354,0.0,0.0
0.6516208,-0.2591589,0.043990027,0.0,0.0
-0.091110565,0.024299538,-0.054747645,0.0,0.0
0.08581154,-0.009024335,0.0058845365,0.0,0.0
0.5213235,0.03945846,-0.074157596,0.0,0.0
0.36449516,-0.18318194,0.22600208,0.0,0.0
-0.5495254,0.0042687436,-0.06587605,0.0,0.0
-0.11324543,0.024711303,-0.13610318,0.0,0.0
-0.18545775,0.029372208,0.0083349785,0.0,0.0
-0.59284014,-0.23371087,-0.089503594,0.0,0.0
0.008579229,-0.0029661178,-0.083378084,0.0,0.0
-0.004716497,0.20171446,-0.12256438,0.0,0.0
-0.42034236,-0.024420772,-0.05196457,0.0,0.0
0.5981681,-0.006742544,-0.03890341,0.0,0.0
-0.48217973,0.086236656,-0.06578858,0.0,0.0
0.10183677,0.016663522,-0.06287011,0.0,0.0
-0.07183049,0.012780778,0.046806194,0.0,0.0
0.17737193,-0.108506255,-0.20633063,0.0,0.0
-0.5091431,-0.24964023,0.09284609,0.0,0.0
-0.7367047,0.024635427,-0.1733704,0.0,0.0
-0.08388474,-0.13493372,0.19229642,0.0,0.0
-0.5103234,0.040982693,-0.09619995,0.0,0.0
-0.3007399,0.17106527,-0.13316877,0.0,0.0
-0.490354,-0.32321718,0.14055634,0.0,0.0
0.16126178,-0.20696945,0.2487612,0.0,0.0
-0.72637546,0.038430568,-0.08756557,0.0,0.0
-0.16688235,0.06545895,-0.03490005,0.0,0.0
0.051373094,0.114733465,-0.12439459,0.0,0.0
0.6080424,0.27060628,5.3027645e-05,0.0,0.0
0.2951957,-0.22826722,0.11643995,0.0,0.0
0.052113708,-0.16322626,0.036426306,0.0,0.0
0.89919645,0.010906906,-0.04590773,0.0,0.0
0.081980556,-0.10605812,0.02475221,0.0,0.0
0.35041687,0.016355582,-0.023721417,0.0,0.0
0.1886855,0.31173074,-0.03734326,0.0,0.0
0.5668743,-0.0725108,-0.081196405,0.0,0.0
0.92759764,-0.24492913,0.031768303,0.0,0.0
0.28976512,-0.18887137,0.2319109,0.0,0.0
0.15599844,-0.041185424,0.2582556,0.0,0.0
-0.27789956,-0.17899872,0.25944498,0.0,0.0
0.54158086,-0.1806264,-0.15796758,0.0,0.0
-0.62567014,0.03466152,-0.120407246,0.0,0.0
-0.031836957,0.06490279,-0.07663084,0.0,0.0
-0.2889038,0.10379325,0.0049277376,0.0,0.0
-1.0078862,0.06055563,-0.08521598,0.0,0.0
-0.26953268,-0.059656702,0.097719885,0.0,0.0
0.27407226,-0.013472471,0.09462615,0.0,0.0
0.4013712,-0.20027569,-0.020459132,0.0,0.0
-0.46847484,0.31779906,-0.10995748,0.0,0.0
-0.8166822,-0.13081647,-0.059232034,0.0,0.0
0.10225594,-0.071246475,0.017169688,0.0,0.0
0.40222397,-0.123340294,0.19165146,0.0,0.0
-0.37359574,-0.15922274,0.09563126,0.0,0.0
-0.6618297,0.15678279,-0.060213853,0.0,0.0
-0.65911305,-0.037537333,-0.09737048,0.0,0.0
-0.17549342,0.104764156,-0.09780938,0.0,0.0
-0.4939758,-0.13345975,-0.11731524,0.0,0.0
-0.35211542,0.01302168,0.14432961,0.0,0.0
-0.3609791,0.05095473,-0.14205164,0.0,0.0
0.005836261,0.08725617,-0.1742829,0.0,0.0
0.6940416,-0.054853216,0.02468944,0.0,0.0
0.32595107,0.03869751,-0.1488623,0.0,0.0
0.08806668,-0.057851814,0.049518213,0.0,0.0
0.1669049,-0.22182523,-0.052408885,0.0,0.0
-0.38526273,-0.13139963,-0.092029124,0.0,0.0
0.24878702,-0.2382753,0.0056971638,0.0,0.0
-0.6134147,-0.05833384,-0.04317662,0.0,0.0
-0.2631254,-0.20195505,0.072545886,0.0,0.0
0.52862996,-0.053263403,0.06693735,0.0,0.0
-0.43452623,-0.095155865,0.093900315,0.0,0.0
0.18539211,-0.270738,0.21904114,0.0,0.0
0.27308953,0.12446397,-0.068854995,0.0,0.0
0.12769957,-0.14972834,-0.015532917,0.0,0.0
0.48532993,-0.23043045,0.023447063,0.0,0.0
0.6441258,0.07058055,-0.06722349,0.0,0.0
0.05481573,-0.025463142,-0.049858715,0.0,0.0
-0.39970535,-0.13990504,0.16977468,0.0,0.0
-0.006274619,-0.11891467,-0.10615801,0.0,0.0
-0.029278431,-0.09457147,-0.14320414,0.0,0.0
0.05443923,-0.024330735,-0.042023532,0.0,0.0
0.6521125,-0.08872517,-0.023448072,0.0,0.0
-0.17770655,-0.08507278,0.05373471,0.0,0.0
0.35732955,-0.20441622,0.18777083,0.0,0.0
0.45004165,-0.10883777,0.13343829,0.0,0.0
0.48901516,0.3253711,-0.102554895,0.0,0.0
0.37376586,0.029788485,-0.12893215,0.0,0.0
0.39359456,-0.121737964,-0.009889763,0.0,0.0
0.12379585,-0.048484642,-0.06629925,0.0,0.0
0.17527075,0.08335109,-0.11534288,0.0,0.0
0.50950134,0.068216525,-0.049269196,0.0,0.0
-0.41366473,-0.13236082,-0.10904593,0.0,0.0
-0.52900136,-0.11398147,-0.08658089,0.0,0.0
0.24926995,-0.06428451,-0.1827554,0.0,0.0
0.5595386,0.20003028,0.14738154,0.0,0.0
0.0027335405,-0.016466804,-0.07069443,0.0,0.0
-0.5615802,0.08844192,-0.06952419,0.0,0.0
0.5708653,-0.164281,0.18096215,0.0,0.0
-0.16234589,-0.12965137,0.2349451,0.0,0.0
0.28615817,-0.05719828,-0.086276025,0.0,0.0
0.059433773,0.11449961,0.0032397045,0.0,0.0
0.6534311,-0.14403334,-0.09338031,0.0,0.0
0.29039904,0.08840217,-0.11328105,0.0,0.0
0.10635905,-0.19721094,0.006632962,0.0,0.0
-0.3237607,0.44876307,-0.12419973,0.0,0.0
0.55879533,0.056090247,-0.13461575,0.0,0.0
0.13864397,0.026926996,-0.11872138,0.0,0.0
0.49438876,0.0846485,-0.0639948,0.0,0.0
-0.39422345,-0.14054531,-0.13805841,0.0,0.0
0.030179108,0.25744075,-0.08395505,0.0,0.0
-0.5171114,-0.011235997,-0.03552359,0.0,0.0
0.37605092,-0.189589,0.22315718,0.0,0.0
-0.065028064,-0.31852362,0.03617706,0.0,0.0
0.52307755,-0.040363405,-0.15024221,0.0,0.0
0.10760095,0.08018254,-0.08354667,0.0,0.0
0.013550643,0.020947812,-0.1350624,0.0,0.0
0.43357155,-0.19804524,-0.0376617,0.0,0.0
-0.33274713,0.017804597,0.14848822,0.0,0.0
0.11178219,0.0037774066,0.10480641,0.0,0.0
-0.1211143,-0.19426465,0.09782245,0.0,0.0
0.03781094,-0.19442867,-0.21381758,0.0,0.0
-0.06464684,-0.0137166055,-0.0717515,0.0,0.0
0.30431932,-0.22118177,-0.016649926,0.0,0.0
-0.36831942,-0.21356277,-0.0903172,0.0,0.0
-0.37972808,-0.17422011,0.24002409,0.0,0.0
0.5487757,-0.014869122,-0.16479932,0.0,0.0
0.40884516,-0.18359393,0.1665208,0.0,0.0
0.023584412,0.18276805,-0.08389096,0.0,0.0
0.042685695,-0.23501791,0.24757268,0.0,0.0
-0.13016056,0.0687454,-0.12633023,0.0,0.0
-0.7069588,-0.0905372,-0.13570493,0.0,0.0
0.092777565,-0.18054792,-0.19041935,0.0,0.0
-0.7147569,0.22559364,-0.04982376,0.0,0.0
-0.036022786,0.17512015,-0.09615089,0.0,0.0
0.4254033,-0.19109617,0.013848869,0.0,0.0
0.55710316,0.30219007,-0.039022673,0.0,0.0
0.26983845,0.015137709,-0.1435783,0.0,0.0
0.04011772,0.2586587,0.031957805,0.0,0.0
-0.6531628,0.08203262,-0.1643362,0.0,0.0
0.41288897,-0.1569596,0.15278329,0.0,0.0
-0.24627925,-0.060133487,-0.1376881,0.0,0.0
-0.17865877,0.041824464,-0.07945506,0.0,0.0
-0.34824327,-0.14980498,0.12449101,0.0,0.0
0.3988668,-0.08714703,-0.09565637,0.0,0.0
0.29620928,-0.072093196,-0.052074797,0.0,0.0
0.55566245,-0.112030245,0.066626474,0.0,0.0
-0.6960079,0.15022549,-0.07349224,0.0,0.0
0.17243017,-0.14053814,-0.06750382,0.0,0.0
-0.3670798,-0.0841967,0.00475547,0.0,0.0
-0.01795134,0.18961266,-0.09285652,0.0,0.0
0.023411365,0.038448323,0.101694606,0.0,0.0
0.3639938,0.05331947,-0.13509738,0.0,0.0
0.42680764,-0.1181022,0.07158578,0.0,0.0
0.5611649,0.14234737,-0.09718463,0.0,0.0
-0.4281799,-0.16043083,0.20039394,0.0,0.0
-0.22225481,-0.14331275,-0.1282866,0.0,0.0
0.11040623,-0.21013503,0.20334871,0.0,0.0
-0.24017708,0.012238621,0.044513993,0.0,0.0
-0.53854746,-0.06300594,0.0671581,0.0,0.0
-0.2756698,-0.048288863,-0.112021446,0.0,0.0
0.0053718435,-0.19974226,0.07308466,0.0,0.0
0.22944012,-0.15392,-0.01669972,0.0,0.0
0.515454,0.039293054,-0.03647298,0.0,0.0
-0.58404046,-0.14516103,0.22558317,0.0,0.0
0.35153607,-0.27727515,0.14368652,0.0,0.0
0.12199048,-0.036585487,-0.07561972,0.0,0.0
0.25328043,-0.0641284,0.0020999555,0.0,0.0
0.08159979,-0.11850528,0.14585622,0.0,0.0
0.33251902,-0.25485817,0.021758482,0.0,0.0
0.16700442,-0.23581682,0.14667836,0.0,0.0
-0.55201757,-0.2636338,-0.07244945,0.0,0.0
0.54239935,0.10092652,0.14405215,0.0,0.0
-0.39299452,0.2563388,-0.10830476,0.0,0.0
-0.52717674,0.29317296,-0.108101696,0.0,0.0
-0.37020075,0.08849818,-0.09275348,0.0,0.0
-0.12160226,-0.01100534,-0.0037507736,0.0,0.0
-0.0803705,0.1662424,-0.085381866,0.0,0.0
0.31849203,-0.15216501,0.111365855,0.0,0.0
0.37714693,-0.39017165,-0.030294552,0.0,0.0
0.01668496,0.064798325,0.15560646,0.0,0.0
0.014189082,-0.19419612,0.18601303,0.0,0.0
-0.14513204,0.047178574,-0.033116363,0.0,0.0
-0.036940802,-0.21892294,0.25928265,0.0,0.0
-0.94009763,0.10251435,-0.1022872,0.0,0.0
-0.13265069,-0.21066198,-0.05114974,0.0,0.0
-0.06838709,0.06767751,-0.04541276,0.0,0.0
-0.3897644,-0.1700509,-0.026174435,0.0,0.0
0.04449599,-0.17358854,0.114194565,0.0,0.0
0.24292274,0.32500148,-0.11050345,0.0,0.0
0.43618304,-0.039131466,-0.036914185,0.0,0.0
-0.11686946,-0.1626438,0.18700749,0.0,0.0
0.26385194,-0.046832237,0.017457793,0.0,0.0
-0.6905274,-0.120778434,0.0062293625,0.0,0.0
-0.29404607,0.17375205,-0.13265261,0.0,0.0
0.2099685,-0.113012716,0.088400014,0.0,0.0
-0.21643588,0.21551883,-0.0007883562,0.0,0.0
0.21999598,-0.20135163,0.061582275,0.0,0.0
0.047331195,-0.21963507,0.2353965,0.0,0.0
0.08039054,0.21984558,-0.072122216,0.0,0.0
0.083918005,0.06155329,-0.09515741,0.0,0.0
-0.009383483,-0.014978241,0.07168521,0.0,0.0
-0.6949114,-0.0633618,-0.08244389,0.0,0.0
0.029202774,0.0021354062,-0.18238041,0.0,0.0
-0.0934183,-0.08718601,-0.0016604644,0.0,0.0
-0.2093482,0.121586315,-0.054863714,0.0,0.0
0.41080755,-0.09385979,0.00048416792,0.0,0.0
-0.15144853,0.0014703472,-0.1185833,0.0,0.0
-0.11271974,0.045816485,-0.13811484,0.0,0.0
-0.6813343,0.09840789,0.05812437,0.0,0.0
0.078889355,0.08895003,-0.07169824,0.0,0.0
-0.7773045,-0.0700397,0.019654904,0.0,0.0
-0.36942732,0.15606432,-0.116851,0.0,0.0
0.05147505,-0.15820953,0.08744455,0.0,0.0
-0.04140716,0.20549904,-0.035121262,0.0,0.0
-0.95630574,0.059364878,-0.091518775,0.0,0.0
0.28537077,-0.09339792,-0.020063128,0.0,0.0
-0.19676279,0.022301346,-0.116457105,0.0,0.0
-0.114509664,-0.084124856,0.008929183,0.0,0.0
0.1500146,0.26819196,-0.13303512,0.0,0.0
-0.34381,-0.19638938,0.1908628,0.0,0.0
0.85399914,-0.40933028,0.08536786,0.0,0.0
0.14688243,-0.17514005,-0.15688044,0.0,0.0
0.48576686,-0.026624812,-0.12344641,0.0,0.0
0.73519826,-0.058174647,-0.16315787,0.0,0.0
-0.06315345,0.12023402,-0.0044465633,0.0,0.0
0.2557959,-0.027090114,0.1080592,0.0,0.0
-0.6196325,-0.17752264,0.14943671,0.0,0.0
0.5118746,0.04996685,-0.095118135,0.0,0.0
0.053633526,0.04631377,-0.07527006,0.0,0.0
0.53975534,-0.06070059,0.12372268,0.0,0.0
-0.26290712,0.036956478,-0.17833394,0.0,0.0
0.2191153,-0.13175698,0.09559965,0.0,0.0
0.59512246,0.13567404,-0.0065193865,0.0,0.0
-0.124660484,-0.053980436,-0.11418787,0.0,0.0
0.0069394675,0.1938555,-0.05954457,0.0,0.0
0.063634336,-0.16767551,-0.06252103,0.0,0.0
0.28707486,0.1335777,-0.05393494,0.0,0.0
-0.34322315,0.06739511,-0.073751114,0.0,0.0
0.1600764,-0.22915207,0.10693756,0.0,0.0
0.4345538,0.051543128,-0.024890551,0.0,0.0
0.04947014,-0.0020630672,-0.070367165,0.0,0.0
-0.74671936,0.062903285,-0.07675228,0.0,0.0
-0.040639225,-0.1530892,0.20687704,0.0,0.0
0.4042514,-0.15401436,0.295365,0.0,0.0
0.23851451,0.08543785,-0.03764577,0.0,0.0
-0.24516547,-0.17615576,0.22630297,0.0,0.0
-0.43078786,-0.04132772,-0.0028670917,0.0,0.0
0.007784046,-0.11469861,-0.09977029,0.0,0.0
-0.7976797,-0.15736142,0.13972826,0.0,0.0
-0.22734918,-0.039718013,-0.039303135,0.0,0.0
-0.054758366,-0.23330502,0.075318746,0.0,0.0
-0.081657104,-0.05304434,-0.033563998,0.0,0.0
0.10713358,0.18289359,0.094226144,0.0,0.0
-0.40362138,-0.12380075,0.0041554985,0.0,0.0
0.4289636,0.00347863,-0.00107732,0.0,0.0
0.39238873,0.033586856,0.018195644,0.0,0.0
-0.43374804,-0.039577946,-0.08230045,0.0,0.0
0.70222163,-0.1888087,0.19296923,0.0,0.0
0.38655147,-0.0025647413,-0.28828058,0.0,0.0
0.5874946,0.41532287,-0.020687947,0.0,0.0
0.34882134,0.017695576,0.007175479,0.0,0.0
0.7016088,0.1107926,-0.11706135,0.0,0.0
-0.06417005,-0.075625435,0.044912137,0.0,0.0
-0.39429182,-0.037541863,0.026078502,0.0,0.0
-0.031361308,-0.12600489,0.046554077,0.0,0.0
0.5143948,-0.08978522,0.05736978,0.0,0.0
-0.174989,-0.26428998,-0.10212873,0.0,0.0
0.57990646,-0.04108555,0.058726493,0.0,0.0
-0.25953677,0.1548582,-0.108748265,0.0,0.0
0.3905882,-0.24561621,-0.1521566,0.0,0.0
0.3195458,-0.15312286,-0.06014754,0.0,0.0
0.14315805,-0.27158853,0.18407066,0.0,0.0
0.59494174,-0.04173898,0.14308225,0.0,0.0
0.00018914609,-0.19100867,0.18037128,0.0,0.0
0.28405848,0.015246201,-0.06484527,0.0,0.0
-0.88969415,-0.14166905,-0.027040059,0.0,0.0
0.375644,0.011380957,-0.03460589,0.0,0.0
0.08490722,-0.15399955,-0.11095549,0.0,0.0
-0.295952,0.0051459637,-0.116827615,0.0,0.0
-0.110551305,0.045577917,-0.109901376,0.0,0.0
0.6425182,0.03418126,-0.064171635,0.0,0.0
-0.33265904,-0.078474894,-0.19943598,0.0,0.0
0.2020276,0.20387365,-0.096475765,0.0,0.0
-0.44977736,-0.095445216,-0.016025698,0.0,0.0
-0.7412978,-0.1370581,0.07472044,0.0,0.0
0.12867624,0.05525509,-0.005271986,0.0,0.0
-0.6293826,-0.21584989,0.03129184,0.0,0.0
0.47325712,-0.06384577,0.084300674,0.0,0.0
-0.36496195,-0.23019245,0.20434128,0.0,0.0
0.2666048,0.35485736,-0.093232945,0.0,0.0
0.22209033,-0.12290726,0.19688013,0.0,0.0
-0.64401567,-0.061328262,0.030301442,0.0,0.0
-0.7980563,-0.21141046,0.12155253,0.0,0.0
-0.57619405,-0.17188607,0.14668551,0.0,0.0
-0.66270757,-0.017730651,-0.1285124,0.0,0.0
-0.34376046,-0.17075837,0.0801789,0.0,0.0
-0.11164784,-0.15428314,0.094731025,0.0,0.0
-0.26124752,0.0051655252,-0.1709947,0.0,0.0
0.064126104,0.03972114,-0.077852294,0.0,0.0
-0.7730587,-0.14511822,-0.09105247,0.0,0.0
0.6964768,-0.044974916,0.01514936,0.0,0.0
-0.023738021,0.13601463,-0.11145488,0.0,0.0
-0.9267774,0.07416387,-0.10005294,0.0,0.0
-0.4861513,-0.15897365,-0.06530933,0.0,0.0
-0.049788743,-0.21940134,-0.00852596,0.0,0.0
0.7018655,-0.027744848,-0.032239575,0.0,0.0
-0.6384568,-0.10481712,-0.11002064,0.0,0.0
0.13346155,0.26462877,-0.064600766,0.0,0.0
-0.09713628,-0.026683187,-0.1777306,0.0,0.0
0.543773,-0.2419522,0.031013701,0.0,0.0
-0.6764728,-0.20978639,0.13207936,0.0,0.0
0.7072932,-0.042939246,-0.119679704,0.0,0.0
0.43143666,-0.04785226,0.091147274,0.0,0.0
-0.1615346,-0.028828247,0.0590814,0.0,0.0
-0.8008345,0.015501032,-0.10106648,0.0,0.0
-0.14761737,0.20692745,-0.13004257,0.0,0.0
-0.35597485,0.08435868,-0.10148815,0.0,0.0
-0.4673364,-0.15470009,-0.1172061,0.0,0.0
-0.06715692,-0.0032093823,-0.042107843,0.0,0.0
-0.22404242,0.18087216,-0.082290076,0.0,0.0
-0.45683736,-0.0026774958,0.041999124,0.0,0.0
