x,y,z,f,scl1
-0.1459192,-0.066591434,-0.13264927,0.0,0.0
0.30452645,-0.20651555,0.22870049,0.0,0.0
0.84335136,-0.103987254,-0.12858473,0.0,0.0
0.2369244,-0.15477487,0.0908951,0.0,0.0
0.5113685,0.012509049,-0.058410298,0.0,0.0
-0.463673,-0.025531473,0.1170485,0.0,0.0
-0.74694926,0.053096,-0.15187386,0.0,0.0
-0.008927513,0.10971677,-0.027862208,0.0,0.0
0.49330044,-0.084319934,0.14689651,0.0,0.0
-0.38205165,0.03678013,-0.12313479,0.0,0.0
0.3401425,-0.181629,0.22452267,0.0,0.0
0.06359035,0.0077679018,-0.07979867,0.0,0.0
0.043495595,-0.042183995,0.09979509,0.0,0.0
0.30441922,0.35637885,-0.07904597,0.0,0.0
0.41868702,0.16035604,-0.12939934,0.0,0.0
-0.12168761,-0.11568187,0.051866237,0.0,0.0
0.6799831,-0.14633635,0.047988825,0.0,0.0
0.12768826,-0.074261695,0.1356603,0.0,0.0
0.54606503,0.16818962,-0.011452839,0.0,0.0
-0.500491,-0.04925862,-0.09091209,0.0,0.0
0.23243152,0.15154149,-0.11660535,0.0,0.0
0.1492367,-0.16639642,-0.007890948,0.0,0.0
-0.30259958,-0.13128263,-0.07639039,0.0,0.0
0.10439701,-0.11947223,0.029309042,0.0,0.0
0.049832024,-0.008368693,0.10320409,0.0,0.0
0.0071485685,-0.24166311,0.122344784,0.0,0.0
-0.35439306,0.30321053,-0.029822048,0.0,0.0
0.64244175,-0.1645594,0.16666314,0.0,0.0
0.047028795,-0.21915558,-0.005325357,0.0,0.0
0.71001923,0.13931659,-0.17832883,0.0,0.0
-0.17205355,-0.052960943,-0.034300044,0.0,0.0
-0.13233797,-0.018575083,-0.15652576,0.0,0.0
-0.4246519,0.049314402,0.018568132,0.0,0.0
-0.11936898,0.037131652,-0.15435871,0.0,0.0
-0.1291942,0.01767442,0.055693638,0.0,0.0
-0.57191277,0.13141567,-0.063977264,0.0,0.0
-0.5520716,0.0030075992,-0.031093454,0.0,0.0
0.5699971,0.09461936,-0.10096441,0.0,0.0
0.85082597,-0.031744663,-0.11575135,0.0,0.0
0.19285297,-0.1308104,0.1215103,0.0,0.0
0.18189767,-0.13741943,0.102264054,0.0,0.0
0.51569825,-0.13101314,0.02008478,0.0,0.0
0.3982083,-0.12034488,0.30528733,0.0,0.0
-0.3204654,0.077593625,-0.101398565,0.0,0.0
0.528501,-0.013791854,-0.04637816,0.0,0.0
-0.26602426,0.01476685,-0.15132426,0.0,0.0
-0.008381977,-0.22581686,0.1973545,0.0,0.0
-0.111260034,-0.09741777,0.1405462,0.0,0.0
-0.026754545,-0.00840889,-0.004944297,0.0,0.0
-0.1062272,0.1277643,0.061434634,0.0,0.0
-0.6751288,-0.25691074,0.15482685,0.0,0.0
0.4748874,-0.09650028,-0.10266099,0.0,0.0
-0.60950756,-0.057814978,-0.17452869,0.0,0.0
-0.74712324,0.05938304,-0.07983801,0.0,0.0
-0.6659808,0.076834224,-0.16287278,0.0,0.0
-0.17470784,-0.045623608,0.024344182,0.0,0.0
-0.56335837,-0.20166138,0.11809829,0.0,0.0
0.01457471,-0.10894806,-0.07706109,0.0,0.0
0.19218749,-0.18095332,0.2870081,0.0,0.0
0.22489172,0.11359203,0.052032392,0.0,0.0
0.6590857,-0.07271994,-0.12187115,0.0,0.0
0.52006906,-0.20119023,-0.012725239,0.0,0.0
0.009141726,-0.1095085,0.16826794,0.0,0.0
-0.41695797,-0.075007334,0.15685052,0.0,0.0
0.32886192,-0.13842265,0.17141078,0.0,0.0
0.086472414,-0.18486947,0.1579108,0.0,0.0
-0.09112924,-0.27785215,-0.112189695,0.0,0.0
0.19096878,0.23013547,-0.024383279,0.0,0.0
0.1941138,-0.054646753,0.2047456,0.0,0.0
-0.10428956,-0.176575,-0.040669587,0.0,0.0
-0.33602372,-0.13588443,-0.08924195,0.0,0.0
0.18173152,-0.050923724,0.037596863,0.0,0.0
0.52752686,0.010335632,-0.085666716,0.0,0.0
-0.13101865,-0.044198364,0.14076002,0.0,0.0
-0.8899554,0.17447838,-0.0703861,0.0,0.0
0.3373423,0.20260091,-0.08819369,0.0,0.0
-0.5167342,-0.24508116,0.14871651,0.0,0.0
0.760998,0.0131121995,-0.024916008,0.0,0.0
-0.55123925,-0.10215358,0.17805646,0.0,0.0
-0.0024159397,-0.0881551,-0.02415704,0.0,0.0
-0.35440794,-0.15629598,0.19003865,0.0,0.0
0.30669808,-0.027157746,0.07674918,0.0,0.0
0.35748503,-0.29102486,-0.057995472,0.0,0.0
-0.42247444,0.20910166,-0.08055509,0.0,0.0
0.4422237,-0.12191372,-0.101252206,0.0,0.0
0.09065554,-0.01570991,0.10301686,0.0,0.0
-0.27154437,0.093164735,-0.04438305,0.0,0.0
-0.30278498,-0.0005434091,-0.025682561,0.0,0.0
0.57323515,0.08501462,-0.087947905,0.0,0.0
-0.052129894,-0.20213342,0.18650012,0.0,0.0
-0.38807794,-0.06809251,0.09671084,0.0,0.0
0.24663563,-0.11914928,-0.016656056,0.0,0.0
0.54422593,-0.15330943,0.0029618915,0.0,0.0
-0.5456917,-0.27873087,0.22525035,0.0,0.0
-0.0771938,-0.19381359,0.030646333,0.0,0.0
-0.94359106,0.04995445,-0.1610589,0.0,0.0
-0.7454566,-0.07473071,-0.022805357,0.0,0.0
0.12801221,0.064776786,-0.12854636,0.0,0.0
-0.94646055,-0.14911753,-0.027706956,0.0,0.0
-0.37484032,0.08221116,-0.07918363,0.0,0.0
-0.2524431,-0.08264156,0.038562726,0.0,0.0
-0.72459954,-0.17934969,0.16260459,0.0,0.0
0.03944232,-0.14953634,-0.06291148,0.0,0.0
0.21070078,0.23795497,-0.09632665,0.0,0.0
-0.8563468,0.0023499234,-0.0946567,0.0,0.0
0.5829806,-0.19238798,-0.04952848,0.0,0.0
0.06611021,0.15277478,-0.11810564,0.0,0.0
0.4559905,-0.14006579,0.06269623,0.0,0.0
-0.5848617,0.022636859,-0.015649395,0.0,0.0
-0.50933707,0.06423426,-0.028549366,0.0,0.0
-0.79861,-0.034898534,-0.057859726,0.0,0.0
-0.24352403,-0.045187492,0.032207496,0.0,0.0
-0.038629685,-0.05784979,0.11571942,0.0,0.0
0.2196335,0.15407057,-0.020872613,0.0,0.0
-0.3050715,-0.07180374,-0.07817433,0.0,0.0
0.57480794,0.1806775,-0.1355404,0.0,0.0
0.85186857,-0.034942944,-0.043050624,0.0,0.0
0.125253,-0.02332746,0.084872395,0.0,0.0
0.3666295,0.49372002,-0.1390219,0.0,0.0
0.7519061,-0.20113729,0.122270696,0.0,0.0
0.58155394,-0.122629575,0.059190474,0.0,0.0
-0.14725101,0.15309456,-0.08050086,0.0,0.0
-0.5473593,-0.14756298,-0.092798576,0.0,0.0
-0.70398164,-0.09414687,-0.025171204,0.0,0.0
0.7108355,-0.020722793,-0.05067887,0.0,0.0
-0.17799304,-0.19800565,0.32102543,0.0,0.0
0.047779914,-0.15892887,0.050995063,0.0,0.0
-0.7140821,-0.07022063,-0.010532254,0.0,0.0
0.38448107,0.42956907,-0.069460414,0.0,0.0
-0.20303276,0.017458359,-0.12793982,0.0,0.0
-0.35785168,-0.18743625,0.072962865,0.0,0.0
0.4061114,-0.15150961,0.02006923,0.0,0.0
0.30877236,-0.033660404,-0.091234796,0.0,0.0
0.6691714,0.038177483,-0.13116495,0.0,0.0
-0.30413142,0.020349864,-0.01826303,0.0,0.0
-0.17406127,0.06351302,-0.03484681,0.0,0.0
-0.7640689,0.0056697214,-0.15927164,0.0,0.0
0.27303872,-0.107049935,-0.09268827,0.0,0.0
0.15476872,-0.040311713,0.15843104,0.0,0.0
0.100445285,-0.2808376,0.21250884,0.0,0.0
0.17646623,-0.28932425,0.06326035,0.0,0.0
0.27703345,-0.13174023,-0.062390618,0.0,0.0
-0.21949756,-0.08994888,-0.044041198,0.0,0.0
0.48705235,-0.1092602,-0.078299925,0.0,0.0
-0.43391865,-0.12900278,0.17860758,0.0,0.0
0.32180345,-0.06524502,0.00052782113,0.0,0.0
0.18452656,0.020655276,-0.017087745,0.0,0.0
0.58753973,-0.11465536,0.10608076,0.0,0.0
0.54997206,0.097850785,-0.031504873,0.0,0.0
-0.24841067,0.042395573,-0.033067826,0.0,0.0
-0.45685965,0.20413235,-0.24943429,0.0,0.0
0.2480018,-0.08521064,0.18245725,0.0,0.0
0.28890055,-0.18376897,0.07864144,0.0,0.0
-0.38037303,-0.30999184,-0.013836087,0.0,0.0
-0.82904387,0.00758153,-0.014113456,0.0,0.0
0.44710892,0.23709625,-0.093174085,0.0,0.0
-0.14671919,0.14609893,-0.059856452,0.0,0.0
0.079477236,-0.020709168,-0.067839794,0.0,0.0
-0.52755123,-0.10897972,0.11633967,0.0,0.0
-0.31927297,-0.1459751,0.1777453,0.0,0.0
0.19517563,-0.08605175,-0.13813822,0.0,0.0
-0.7037788,-0.013698784,-0.1789835,0.0,0.0
0.38536233,-0.08545911,-0.15688157,0.0,0.0
-0.5052801,0.126689,0.1164603,0.0,0.0
0.4410783,0.110999234,-0.079233296,0.0,0.0
-0.15866745,-0.023119392,0.038827498,0.0,0.0
0.44904387,-0.16788854,0.22444807,0.0,0.0
-0.28469703,0.042948365,0.037937105,0.0,0.0
-0.20320335,-0.2141639,0.074934326,0.0,0.0
0.48673797,-0.10822378,-0.078116536,0.0,0.0
-0.7119439,-0.19136144,0.024768213,0.0,0.0
0.403065,-0.20805942,0.071834534,0.0,0.0
0.04678312,-0.109228134,0.11832542,0.0,0.0
-0.87826794,-0.1833204,-0.0588744,0.0,0.0
0.07845752,-0.049120054,-0.009859427,0.0,0.0
0.49612007,0.2800233,-0.060527254,0.0,0.0
-0.49031487,-0.123135604,0.067520365,0.0,0.0
0.017005945,-0.2698924,-0.23099193,0.0,0.0
-0.7115616,0.004338655,-0.05371104,0.0,0.0
0.37050605,-0.22979656,0.2540138,0.0,0.0
-0.7174309,-0.24999157,-0.07214069,0.0,0.0
-0.5626515,0.120853305,-0.08300697,0.0,0.0
0.22450902,0.18122554,-0.111169465,0.0,0.0
0.82646006,-0.10313882,-0.0049798572,0.0,0.0
0.06502981,-0.16136608,0.120307915,0.0,0.0
0.35062364,-0.064605035,0.057956323,0.0,0.0
0.71259534,-0.04660096,0.060388334,0.0,0.0
0.5273823,-0.05666859,0.0059975386,0.0,0.0
0.4388769,0.16840446,0.089230575,0.0,0.0
-0.075057246,0.012606179,-0.009930863,0.0,0.0
0.37814456,0.28297734,-0.09964031,0.0,0.0
-0.40814334,-0.06047158,-0.13163681,0.0,0.0
0.46731427,-0.16812786,-0.08039998,0.0,0.0
-0.36739382,-0.13134615,0.17513736,0.0,0.0
-0.5090066,-0.22725762,0.08533563,0.0,0.0
0.14989942,-0.004620194,0.005395443,0.0,0.0
0.33580846,0.04288287,-0.025288394,0.0,0.0
0.049073733,0.037179727,-0.11610594,0.0,0.0
-0.0053260163,-0.10423338,0.089128464,0.0,0.0
0.3593929,-0.060336575,-0.043515597,0.0,0.0
-0.3076697,0.100026645,-0.010392123,0.0,0.0
0.30772647,-0.21995114,0.12385431,0.0,0.0
0.10767584,0.560739,0.09789499,0.0,0.0
0.51706016,-0.18851171,0.07821983,0.0,0.0
0.8307284,-0.2012594,-0.078709766,0.0,0.0
0.40611807,-0.116706535,-0.081099026,0.0,0.0
0.24632871,-0.07983533,0.054655198,0.0,0.0
-0.33825693,-0.14203003,-0.085651994,0.0,0.0
0.014517832,-0.01121027,-0.0602934,0.0,0.0
-0.6555296,0.046485066,-0.011883738,0.0,0.0
0.026127815,-0.13568531,0.017552314,0.0,0.0
0.37241516,0.007503177,-0.037726816,0.0,0.0
0.028717266,-0.01988683,-0.07399111,0.0,0.0
-0.91147786,-0.024165386,-0.11305239,0.0,0.0
0.42330477,-0.033647817,-0.11883089,0.0,0.0
0.43069783,0.058155216,-0.105219625,0.0,0.0
0.532954,-0.07814344,0.17948039,0.0,0.0
0.5172605,0.09392842,-0.07160307,0.0,0.0
-0.69259673,-0.21225806,-0.018161613,0.0,0.0
-0.5561352,-0.06974897,0.03877922,0.0,0.0
-0.25735825,-0.11575057,0.04571052,0.0,0.0
-0.006012939,0.15609482,0.00046906108,0.0,0.0
0.3168929,-0.15826379,-0.11667578,0.0,0.0
0.3882434,-0.124200836,-0.11942406,0.0,0.0
0.31224352,-0.11410984,0.1113234,0.0,0.0
0.056763794,-0.16464499,0.12651896,0.0,0.0
-0.29479143,0.078894444,-0.067913406,0.0,0.0
-0.40611064,0.05322051,-0.124609634,0.0,0.0
-0.38926739,0.040155407,-0.0150630865,0.0,0.0
0.26711008,-0.18086958,0.22852412,0.0,0.0
0.7102008,-0.04688175,-0.17715546,0.0,0.0
-0.5831264,0.049921524,-0.12004073,0.0,0.0
0.8382248,-0.02864933,-0.015781386,0.0,0.0
-0.65271795,-0.11087679,-0.08233988,0.0,0.0
-0.64381975,0.08243355,-0.0995067,0.0,0.0
-0.14014587,-0.0507583,-0.04981651,0.0,0.0
0.5880717,0.28841516,-0.03579066,0.0,0.0
-0.059796154,0.04142235,0.16343202,0.0,0.0
-0.036059547,-0.25670633,0.1289256,0.0,0.0
-0.1872269,-0.11693519,0.11226392,0.0,0.0
-0.6304165,-0.03209644,-0.18231331,0.0,0.0
0.59067166,-0.01764336,0.1121818,0.0,0.0
0.22799331,-0.13388988,-0.027025854,0.0,0.0
0.7061014,0.38730234,-0.048117876,0.0,0.0
0.6183764,0.055904362,-0.077045925,0.0,0.0
0.09105448,-0.02922992,-0.0674035,0.0,0.0
-0.19969545,0.20315999,-0.08750682,0.0,0.0
0.33046475,-0.16303279,0.1030299,0.0,0.0
0.7142219,-0.13342682,0.026856074,0.0,0.0
-0.68733174,0.1530507,-0.11721355,0.0,0.0
0.4765741,-0.059699778,-0.09572883,0.0,0.0
0.62882376,-0.16001998,-0.12700814,0.0,0.0
-0.6231654,-0.19833285,0.17264594,0.0,0.0
-0.39043853,0.02258283,0.0072789835,0.0,0.0
-0.7331894,0.03696288,-0.1331037,0.0,0.0
0.23842959,0.058725264,-0.073861614,0.0,0.0
0.13417852,0.009662334,-0.11867413,0.0,0.0
-0.5161986,-0.07984912,0.08645772,0.0,0.0
0.85302573,0.0017027971,0.24948223,0.0,0.0
0.7488133,-0.17627877,0.07142352,0.0,0.0
-0.16401574,-0.026407696,0.033916146,0.0,0.0
0.84997255,-0.16868833,0.07866046,0.0,0.0
-0.09248507,-0.09937641,0.057558965,0.0,0.0
-0.43357623,-0.14443988,-0.044472035,0.0,0.0
0.06614661,0.060278807,-0.07585125,0.0,0.0
-0.0065658297,0.13418823,-0.14292584,0.0,0.0
-0.1715671,0.0054808254,0.023097182,0.0,0.0
-0.23158269,-0.06470603,0.1076018,0.0,0.0
0.46026015,0.19281814,-0.10339773,0.0,0.0
-0.87796336,-0.033940196,-0.010331834,0.0,0.0
0.011797568,0.11501882,-0.12269507,0.0,0.0
-0.36909345,0.25390458,-0.11205373,0.0,0.0
-0.5489004,-0.09089282,-0.109979026,0.0,0.0
0.6714475,-0.101613134,0.124983214,0.0,0.0
-0.4463526,0.056691203,-0.10790435,0.0,0.0
-0.23170465,-0.14537142,0.2308159,0.0,0.0
-0.73991424,0.21407065,-0.090300314,0.0,0.0
-0.59540015,0.14308822,-0.004433138,0.0,0.0
0.4325926,-0.05539816,0.114742085,0.0,0.0
-0.72720516,-0.10141586,-0.07145438,0.0,0.0
0.054873817,-0.13014211,0.2464274,0.0,0.0
0.4453689,-0.2406327,0.25739834,0.0,0.0
-0.17200097,0.13408725,-0.08833107,0.0,0.0
0.33693516,-0.19916072,0.023704488,0.0,0.0
0.5434382,-0.1344193,-0.11025086,0.0,0.0
-0.13791294,0.28655186,-0.060185634,0.0,0.0
0.07855025,-0.032371327,-0.15651068,0.0,0.0
0.35210374,-0.107175164,-0.062162653,0.0,0.0
-0.28520185,-0.071476564,-0.081048846,0.0,0.0
-0.0043702857,0.19649756,-0.09381357,0.0,0.0
-0.17335999,-0.03562495,0.10658939,0.0,0.0
-0.45207155,-0.17892501,0.26105353,0.0,0.0
0.4830596,-0.2609097,0.2317027,0.0,0.0
0.2781184,-0.27818796,0.31239924,0.0,0.0
0.16074061,0.0035972768,-0.13630746,0.0,0.0
-0.05476642,-0.27659824,0.2621072,0.0,0.0
-0.21707985,0.037164234,-0.02538159,0.0,0.0
-0.0990117,-0.18794185,0.19229633,0.0,0.0
-0.29615575,0.04300898,0.027760996,0.0,0.0
-0.11346526,-0.29741913,0.18351324,0.0,0.0
0.067709446,0.11136151,-0.037478276,0.0,0.0
0.04609672,-0.14515905,0.19460365,0.0,0.0
-0.70462954,-0.24662381,-0.08442574,0.0,0.0
0.1181068,-0.056062203,-0.10762759,0.0,0.0
-0.44390061,-0.037314914,0.0445865,0.0,0.0
-0.0076126885,0.1138744,-0.16138293,0.0,0.0
-0.23337865,0.06450717,-0.078147694,0.0,0.0
0.37827924,-0.07352077,-0.030137511,0.0,0.0
0.78986126,-0.088049315,0.06918815,0.0,0.0
0.10073966,-0.10397275,0.0133107705,0.0,0.0
-0.2250719,0.04407855,-0.13716573,0.0,0.0
-0.3925553,-0.13344626,0.28385994,0.0,0.0
-0.05218996,0.2564945,-0.13101527,0.0,0.0
0.33728537,0.28395474,-0.016889267,0.0,0.0
0.283282,-0.16449417,-0.038725313,0.0,0.0
-0.1404036,-0.111449875,0.10125654,0.0,0.0
-0.7883189,-0.103967905,-0.13403772,0.0,0.0
-0.46991295,-0.23454997,0.0773143,0.0,0.0
-0.3830518,0.021144064,-0.007973312,0.0,0.0
0.45649755,-0.25944158,0.01794519,0.0,0.0
0.3288419,-0.048775487,-0.13898703,0.0,0.0
0.6240121,-0.16447605,0.1269497,0.0,0.0
0.19156061,-0.1830743,0.06653138,0.0,0.0
-0.028971164,-0.059216477,0.13256416,0.0,0.0
0.27594882,-0.1396265,0.2130473,0.0,0.0
0.6119784,0.04638497,-0.077928066,0.0,0.0
0.32104182,0.0699589,-0.05721041,0.0,0.0
0.36896858,-0.1642767,-0.20032772,0.0,0.0
-0.67463285,-0.19218771,-0.02812418,0.0,0.0
0.08974582,0.18270165,-0.17575678,0.0,0.0
-0.6811023,0.26917848,-0.09019369,0.0,0.0
-0.59592533,-0.14037727,-0.09419113,0.0,0.0
-0.31148276,0.029029904,-0.11049194,0.0,0.0
-0.59155935,0.18074723,-0.093113646,0.0,0.0
-0.1950861,-0.07610503,-0.21597776,0.0,0.0
-0.060215887,-0.10796589,0.15838344,0.0,0.0
0.30675143,0.016815968,0.1368679,0.0,0.0
0.16448814,-0.15465057,-0.047866557,0.0,0.0
-0.39471883,-0.22452775,-0.052094452,0.0,0.0
-0.14241777,-0.17641997,0.0064052073,0.0,0.0
-0.5584362,-0.13507386,-0.11036709,0.0,0.0
-0.5924712,0.033352595,-0.10571371,0.0,0.0
0.061727542,-0.059219033,-0.09718752,0.0,0.0
0.10654946,0.105896555,-0.21861246,0.0,0.0
0.64986616,-0.12957989,0.13515334,0.0,0.0
0.042468734,-0.17035627,0.1294161,0.0,0.0
-0.7572852,0.11859577,0.08360425,0.0,0.0
0.0319193,-0.16810709,0.1443568,0.0,0.0
-0.028064689,0.17659056,-0.16804402,0.0,0.0
-0.37013668,0.07432094,-0.10433228,0.0,0.0
0.6458849,-0.06500821,-0.1641169,0.0,0.0
0.2736216,0.34828442,-0.099361196,0.0,0.0
-0.202772,-0.0062674438,-0.11929712,0.0,0.0
0.49323994,-0.13783114,0.048352256,0.0,0.0
0.26525354,-0.051088102,0.11117937,0.0,0.0
0.105182074,0.09831711,-0.038618673,0.0,0.0
0.065396495,-0.11818599,-0.10552321,0.0,0.0
-0.7617566,-0.22384593,0.0988652,0.0,0.0
0.124102235,-0.12835348,0.117026985,0.0,0.0
0.089606375,0.1008537,-0.02940395,0.0,0.0
0.88571113,0.13331337,-0.091297835,0.0,0.0
0.13312788,0.059132926,-0.07804662,0.0,0.0
-0.71237373,-0.15267767,-0.096443914,0.0,0.0
0.16855973,0.07931587,-0.14338659,0.0,0.0
0.3017302,0.24271056,0.054969214,0.0,0.0
0.3679368,-0.023577554,-0.009248276,0.0,0.0
-0.053512294,-0.25381452,0.3884204,0.0,0.0
-0.34817696,0.20383926,-0.04917325,0.0,0.0
-0.4307721,-0.20115016,0.09127611,0.0,0.0
-0.5439755,-0.10878611,-0.10389119,0.0,0.0
0.6515964,-0.0030082995,-0.034469277,0.0,0.0
0.4222631,-0.07516064,-0.05581318,0.0,0.0
-0.19801253,-0.1433069,0.28893986,0.0,0.0
0.0534289,-0.22339235,0.15899059,0.0,0.0
0.061640114,-0.0073025483,-0.064497225,0.0,0.0
-0.016145607,-0.10037301,0.1474161,0.0,0.0
0.14031248,-0.14271878,0.036499467,0.0,0.0
-0.20446463,-0.068043604,-0.032222807,0.0,0.0
0.06659746,0.016119273,-0.05442266,0.0,0.0
-0.7855457,-0.115025274,-0.07696142,0.0,0.0
-0.5636434,-0.0032241144,0.100599796,0.0,0.0
0.27707145,-0.19757655,0.24136807,0.0,0.0
-0.66034067,-0.0076339375,-0.07665916,0.0,0.0
0.5967909,-0.104978055,0.0048493617,0.0,0.0
0.8128675,-0.09959258,0.090590075,0.0,0.0
0.6547433,-0.19539244,0.19150825,0.0,0.0
-0.05577221,-0.21994756,0.046809513,0.0,0.0
0.45334724,0.174336,-0.118177414,0.0,0.0
-0.22311983,-0.042915158,-0.110438466,0.0,0.0
-0.42832443,-0.00377417,-0.020256124,0.0,0.0
0.38712597,-0.10175701,0.03771819,0.0,0.0
-0.39718464,-0.05880921,0.08556994,0.0,0.0
0.4582282,-0.15102637,0.15627676,0.0,0.0
0.09733346,-0.014594732,-0.011403061,0.0,0.0
-0.4917639,0.25399876,-0.10588791,0.0,0.0
0.41293645,0.4475913,-0.0144715635,0.0,0.0
0.6511014,-0.17630641,0.23222214,0.0,0.0
0.51778567,0.011904998,0.11390369,0.0,0.0
-1.0211713,0.17544582,-0.23849523,0.0,0.0
0.21916702,0.058375828,0.07744905,0.0,0.0
-0.79260784,-0.13701734,-0.13630238,0.0,0.0
0.62677425,0.00710439,-0.079394415,0.0,0.0
0.04608598,-0.1776254,0.30534306,0.0,0.0
0.60213834,-0.071051136,-0.10576999,0.0,0.0
-0.63087404,-0.20254244,0.17211056,0.0,0.0
0.78465915,-0.14007413,0.103003226,0.0,0.0
0.64324635,0.28107995,-0.096091345,0.0,0.0
-0.4929131,-0.15141448,0.1954223,0.0,0.0
-0.066175595,-0.09910519,0.013835326,0.0,0.0
0.3151348,0.29995617,-0.02349978,0.0,0.0
-0.32881,-0.101628646,0.1691656,0.0,0.0
0.45334494,-0.051502544,0.14014618,0.0,0.0
-0.46031216,0.19696015,-0.06626946,0.0,0.0
-0.312259,0.022214156,-0.043806612,0.0,0.0
-0.017697327,-0.101773776,0.05222496,0.0,0.0
-0.7096277,-0.099782705,0.046149526,0.0,0.0
-0.16943079,0.2999418,-0.05782826,0.0,0.0
0.56391615,-0.21700698,-0.028887894,0.0,0.0
0.12591402,-0.0872117,-0.19974284,0.0,0.0
-0.62942535,0.01597946,0.16073726,0.0,0.0
-0.0105642835,-0.15193811,0.038816042,0.0,0.0
0.35597277,-0.19103031,0.013352576,0.0,0.0
0.4681313,-0.1069578,-0.044168796,0.0,0.0
-0.18979181,0.3225297,0.027695902,0.0,0.0
0.36172408,-0.19615617,-0.06558389,0.0,0.0
-0.86898696,0.17060319,-0.11206138,0.0,0.0
0.7617563,0.2402425,-0.00050192606,0.0,0.0
0.40327904,0.103444934,-0.06774956,0.0,0.0
-0.2566181,0.0888636,0.07860654,0.0,0.0
0.51594645,-0.1549145,0.1864958,0.0,0.0
0.43519244,0.26978895,-0.08034903,0.0,0.0
-0.2440867,-0.144911,0.11913452,0.0,0.0
-0.6580461,-0.1632955,0.0069270222,0.0,0.0
-0.17484412,-0.11070677,0.18883857,0.0,0.0
0.62505513,-0.091499336,0.0109079,0.0,0.0
-0.81373197,0.11064099,-0.025090713,0.0,0.0
-0.2820779,0.09573807,-0.10025752,0.0,0.0
-0.19102226,0.07992732,-0.11678091,0.0,0.0
0.27748433,-0.20525014,0.16327293,0.0,0.0
0.079409845,-0.14531691,-0.19218664,0.0,0.0
0.23226719,-0.11427165,0.066535406,0.0,0.0
-0.42879272,0.042523313,-0.115380876,0.0,0.0
0.057826437,0.035950135,-0.086546555,0.0,0.0
-0.2133085,-0.15367825,-0.14779203,0.0,0.0
0.040465087,-0.08951399,0.107424416,0.0,0.0
0.24700421,-0.12929757,-0.12672482,0.0,0.0
0.25057733,-0.1198686,0.14125066,0.0,0.0
0.4266808,-0.16682982,0.19755298,0.0,0.0
0.5494846,0.33148172,-0.059043154,0.0,0.0
-0.8077357,-0.09425751,0.036925405,0.0,0.0
-0.40425968,-0.21176656,0.156084,0.0,0.0
0.08731621,-0.18911217,0.12218913,0.0,0.0
0.22317366,-0.06330425,-0.08449595,0.0,0.0
0.029508281,-0.032213934,0.13257477,0.0,0.0
0.052096613,0.008537871,-0.062978484,0.0,0.0
0.3049251,-0.09755763,0.18762058,0.0,0.0
-0.47292492,-0.045341793,-0.1602958,0.0,0.0
-0.57256645,0.003242192,-0.060880512,0.0,0.0
0.7127331,-0.028514942,-0.09662662,0.0,0.0
0.3851699,0.15453304,-0.02349916,0.0,0.0
0.2847152,-0.19823302,0.026379136,0.0,0.0
-0.33691683,0.04820854,-0.0777494,0.0,0.0
-0.16879028,-0.073025845,0.05858989,0.0,0.0
0.2835392,-0.09837802,-0.11693846,0.0,0.0
0.19504097,0.021931026,0.093796425,0.0,0.0
-0.7703338,-0.16992764,0.009441628,0.0,0.0
-0.68095773,0.013244454,-0.06437996,0.0,0.0
0.41002104,-0.06702018,-0.0073974263,0.0,0.0
0.6034044,0.25399375,-0.086355604,0.0,0.0
-0.19777702,-0.2949761,0.18176515,0.0,0.0
-0.11215289,0.40746948,-0.19676553,0.0,0.0
0.2529572,-0.41114175,0.33017418,0.0,0.0
0.40996832,-0.24469803,0.031174619,0.0,0.0
0.21119124,-0.05684517,-0.11421589,0.0,0.0
0.019340683,-0.019546038,-0.11333072,0.0,0.0
0.6924167,-0.041515373,-0.21148932,0.0,0.0
-0.07469334,0.15566847,-0.10417722,0.0,0.0
0.18522301,-0.25373977,0.21912037,0.0,0.0
-0.25363782,0.37789062,0.04570763,0.0,0.0
0.10821504,0.042074163,-0.055724658,0.0,0.0
-0.2904614,0.17550537,-0.052506223,0.0,0.0
0.5513717,-0.0033681737,-0.13683131,0.0,0.0
0.2437145,-0.12709533,0.19604233,0.0,0.0
-0.6576166,-0.09479698,-0.15724705,0.0,0.0
-0.66656405,-0.2544902,-0.089710295,0.0,0.0
-0.5290436,-0.053307395,0.024803612,0.0,0.0
0.39565483,-0.14865899,0.20257322,0.0,0.0
-0.17584501,0.14787427,-0.031613395,0.0,0.0
-0.18443105,-0.050544687,-0.028066628,0.0,0.0
0.010514708,-0.07191759,0.083339475,0.0,0.0
0.076085255,-0.19517568,0.2490528,0.0,0.0
-0.87695014,-0.08234929,0.08245143,0.0,0.0
0.20218453,-0.08087442,0.035838608,0.0,0.0
0.3538744,-0.08674041,0.015164473,0.0,0.0
0.77090496,-0.05868937,0.040746924,0.0,0.0
0.25035387,0.12247073,-0.024616411,0.0,0.0
0.7426474,-0.004752313,-0.069012776,0.0,0.0
0.2453575,-0.15235741,-0.0059837326,0.0,0.0
0.3191763,0.03686175,-0.083868906,0.0,0.0
0.71413887,0.046140797,0.038790878,0.0,0.0
0.7900758,-0.038610484,-0.023196835,0.0,0.0
-0.7250498,0.0017882285,-0.15446475,0.0,0.0
0.580832,-0.0009991825,-0.060876567,0.0,0.0
0.34981686,-0.15120263,0.21959504,0.0,0.0
-0.7234895,-0.057126038,-0.025583481,0.0,0.0
-0.2684716,-0.142335,-0.08467476,0.0,0.0
0.50792134,-0.07783161,0.015289871,0.0,0.0
0.671907,0.04731352,-0.07031424,0.0,0.0
-0.896605,0.2076309,-0.22920537,0.0,0.0
0.20151614,-0.09303923,0.114727885,0.0,0.0
-0.9715751,0.028747862,-0.14759967,0.0,0.0
0.49441385,0.041505165,-0.17925766,0.0,0.0
-0.7470696,0.089310884,-0.09618193,0.0,0.0
-0.51197475,0.2558407,-0.05628912,0.0,0.0
0.41345665,-0.18513076,0.12969397,0.0,0.0
0.21456832,-0.25557238,-0.0006570377,0.0,0.0
0.4421064,-0.011940708,0.005918282,0.0,0.0
-0.9757628,-0.09501448,-0.023533536,0.0,0.0
0.31244126,0.017394481,0.053960662,0.0,0.0
-0.018613275,-0.017356843,0.027493246,0.0,0.0
-0.8629131,0.406304,-0.12638201,0.0,0.0
0.5297086,-0.13771214,-0.07166924,0.0,0.0
0.68473744,0.012488347,-0.085850775,0.0,0.0
-0.5616121,-0.011383181,-0.05742507,0.0,0.0
0.25821653,0.08619288,-0.15140748,0.0,0.0
-0.40299588,-0.09942688,0.110404134,0.0,0.0
-0.808143,0.47141188,-0.07188296,0.0,0.0
0.46958685,0.13627025,-0.13243394,0.0,0.0
0.2013783,-0.119215965,0.0918932,0.0,0.0
0.3947583,-0.14156134,0.15426962,0.0,0.0
0.13471174,-0.10717279,-0.007171675,0.0,0.0
0.3209828,-0.27338302,0.17973505,0.0,0.0
-0.34532285,0.19671366,-0.11069548,0.0,0.0
0.17150535,0.0624502,-0.111561246,0.0,0.0
-0.3658391,-0.15099183,0.21545056,0.0,0.0
0.14748551,-0.069925055,-0.039390963,0.0,0.0
0.376318,0.008143887,-0.13296443,0.0,0.0
-0.061531305,-0.054136854,0.14147343,0.0,0.0
0.580594,2.1634041e-05,-0.045599718,0.0,0.0
0.1807772,0.27432773,-0.1012067,0.0,0.0
0.39766085,-0.012678873,0.014538904,0.0,0.0
0.46183646,-0.23297422,0.13197193,0.0,0.0
-0.12184896,0.25436702,-0.15068622,0.0,0.0
0.8997861,-0.20266685,-0.030261848,0.0,0.0
0.41875243,0.30281356,-0.06351945,0.0,0.0
0.63364595,0.1930495,-0.04425299,0.0,0.0
0.6451501,0.3636024,-0.034507267,0.0,0.0
-0.020797392,-0.044710908,0.17653549,0.0,0.0
-0.33754107,-0.08306598,-0.044011664,0.0,0.0
0.4740032,-0.111930266,0.11625072,0.0,0.0
-0.037670285,-0.08758187,0.10548474,0.0,0.0
-0.05809104,0.102210216,-0.06305726,0.0,0.0
1.038394,0.06188827,-0.26193485,0.0,0.0
0.40084067,-0.09118547,-0.14423755,0.0,0.0
-0.46168578,0.09786142,-0.089442335,0.0,0.0
0.6658335,-0.20320705,-0.10060986,0.0,0.0
-0.56207067,0.039112825,-0.015260419,0.0,0.0
0.7132127,-0.053275842,-0.10336247,0.0,0.0
0.26082417,-0.27127498,-0.0095150005,0.0,0.0
-0.5393232,-0.2956915,0.2782495,0.0,0.0
0.23540795,-0.29641908,0.09249993,0.0,0.0
-0.67351276,-0.107078575,0.035977185,0.0,0.0
0.011474219,0.043347947,-0.02865519,0.0,0.0
-0.26477343,-0.028276294,0.07887738,0.0,0.0
0.693713,0.11546735,-0.14443862,0.0,0.0
-0.1467245,0.026269214,-0.15574102,0.0,0.0
0.56388754,0.26228824,-0.096365914,0.0,0.0
0.3285796,-0.14878494,0.19711265,0.0,0.0
0.32489857,-0.001309695,-0.14885075,0.0,0.0
-0.24793917,-0.10644979,0.053885445,0.0,0.0
0.39835364,-0.06388278,0.11171416,0.0,0.0
0.34800723,-0.18863632,0.02206219,0.0,0.0
-0.61601955,0.07166544,-0.004318671,0.0,0.0
-0.5589732,0.015793664,-0.13465393,0.0,0.0
-0.35034433,-0.15793024,0.001653717,0.0,0.0
0.05570411,-0.26651496,-0.10846184,0.0,0.0
-0.06251219,-0.19285749,0.089619376,0.0,0.0
-0.6679603,-0.01674448,-0.089215435,0.0,0.0
0.507351,0.28773576,-0.09224521,0.0,0.0
-0.00061904296,0.21132742,-0.11327402,0.0,0.0
0.3841992,-0.0625735,0.06440931,0.0,0.0
-0.26819983,-0.037602335,-0.09587034,0.0,0.0
0.48171142,-0.040464506,-0.19794475,0.0,0.0
-0.50588334,-0.041018322,-0.00446057,0.0,0.0
-0.45808852,0.03813701,0.012722368,0.0,0.0
-0.62185305,-0.18231465,0.126039,0.0,0.0
0.05279668,-0.08277869,0.15637863,0.0,0.0
-0.7761399,0.015587675,-0.080445595,0.0,0.0
0.2485522,0.24080387,-0.2503876,0.0,0.0
-0.47674403,0.3359792,-0.09379434,0.0,0.0
-0.39814305,-0.023187522,0.10700085,0.0,0.0
-0.885911,-0.06313377,-0.06340843,0.0,0.0
0.2209597,0.31385303,-0.10065722,0.0,0.0
0.29056707,-0.06671013,0.19643575,0.0,0.0
-0.5291316,-0.018937195,0.080384105,0.0,0.0
0.30136088,0.05587475,-0.118876055,0.0,0.0
0.53939253,0.103029296,-0.1011533,0.0,0.0
0.8040205,-0.05814606,0.045782417,0.0,0.0
0.62182325,-0.18464252,-0.065707855,0.0,0.0
0.6505202,0.26511464,-0.072764695,0.0,0.0
-0.61427265,0.25655967,-0.010851452,0.0,0.0
0.73906565,-0.16415423,0.02559035,0.0,0.0
0.18564662,-0.20142344,0.09679494,0.0,0.0
-0.054956466,-0.18285833,0.19794339,0.0,0.0
0.72846013,-0.123362176,0.09927449,0.0,0.0
-0.50976974,-0.18119569,0.1336524,0.0,0.0
-0.6434146,0.1643495,-0.113313675,0.0,0.0
-0.5627295,0.010231233,0.02839432,0.0,0.0
0.5035443,-0.046294235,0.035456106,0.0,0.0
0.736366,0.23732659,-0.03712833,0.0,0.0
0.4081262,0.3496736,0.029172199,0.0,0.0
0.13129441,0.1058259,-0.11569256,0.0,0.0
0.5353241,-0.09120209,0.04287784,0.0,0.0
0.12317924,0.2879969,-0.0869596,0.0,0.0
0.029756559,-0.003123094,-0.081712365,0.0,0.0
-0.8691933,-0.057592668,-0.033332124,0.0,0.0
0.033871386,0.058353297,0.07073233,0.0,0.0
-0.22712284,0.06149985,-0.12927628,0.0,0.0
0.25500727,-0.09461258,0.27615836,0.0,0.0
0.1771895,-0.21680938,0.062157523,0.0,0.0
-0.7105616,0.27233252,-0.08712569,0.0,0.0
-0.24704252,-0.013287689,0.09989189,0.0,0.0
-0.7842573,-0.044835094,-0.03375661,0.0,0.0
0.5354951,0.08715807,-0.15287644,0.0,0.0
-0.9754347,0.00612011,-0.013298157,0.0,0.0
0.6793229,-0.17331314,0.09759173,0.0,0.0
0.21236758,-0.03554021,-0.12210381,0.0,0.0
0.24122883,-0.11049725,-0.15380363,0.0,0.0
-0.30258843,-0.008393931,-0.1807148,0.0,0.0
-0.07020728,-0.16008848,-0.057656206,0.0,0.0
0.30413333,-0.2057277,-0.01914421,0.0,0.0
0.30921912,0.061434023,-0.13807848,0.0,0.0
0.21779972,-0.10210322,0.06458238,0.0,0.0
0.60078484,-0.25185898,0.30640003,0.0,0.0
-0.055524994,-0.18508053,0.21343413,0.0,0.0
-0.054249037,-0.23717725,0.1487903,0.0,0.0
0.34628353,0.0045516337,0.034559388,0.0,0.0
-0.49289912,0.19015242,-0.10060059,0.0,0.0
-0.043542452,-0.12283511,0.028071107,0.0,0.0
-0.26317197,-0.13612676,0.16484773,0.0,0.0
-0.46058545,-0.024655037,0.053367797,0.0,0.0
-0.34102592,0.18725869,-0.061705172,0.0,0.0
0.637612,-0.06116008,-0.052336063,0.0,0.0
0.3996424,0.0019269946,0.09422954,0.0,0.0
0.5689775,-0.23768456,-0.046138853,0.0,0.0
-0.7138144,-0.22795694,-0.03044712,0.0,0.0
0.18456487,0.05884833,0.2013156,0.0,0.0
-0.24520777,-0.17969172,0.03340825,0.0,0.0
0.13740897,-0.110493354,0.115066424,0.0,0.0
-0.30357143,0.03966131,0.13215992,0.0,0.0
-0.046939656,0.03771522,-0.037376437,0.0,0.0
0.39920294,-0.10035372,0.0059588253,0.0,0.0
-0.5012278,0.06412146,0.040801264,0.0,0.0
-0.15293927,-0.19917184,0.3134017,0.0,0.0
-0.939722,0.1536857,3.8820785e-05,0.0,0.0
-0.55467373,0.1519416,-0.09994343,0.0,0.0
0.24864075,0.098812185,-0.16180757,0.0,0.0
0.7721758,-0.0067414995,-0.04642932,0.0,0.0
0.7029142,-0.09452783,0.041309003,0.0,0.0
-0.58323044,0.012154443,0.04623756,0.0,0.0
-0.8042074,-0.050679374,-0.02932883,0.0,0.0
0.04917333,-0.1483449,0.10344377,0.0,0.0
-0.13747734,0.012839207,-0.06610807,0.0,0.0
-0.13357876,-0.06342366,0.10495759,0.0,0.0
0.22762454,-0.13601494,-0.009129238,0.0,0.0
0.49329793,-0.12746507,0.30449814,0.0,0.0
0.18165676,-0.20659682,0.123055674,0.0,0.0
-0.399528,-0.21468575,-0.050880313,0.0,0.0
0.7231134,0.09978982,-0.18494788,0.0,0.0
0.24560827,-0.088250875,-0.12555264,0.0,0.0
0.8132926,0.0061109895,-0.09711404,0.0,0.0
0.46038365,0.06563317,-0.17450692,0.0,0.0
0.3550608,-0.1519211,0.21374775,0.0,0.0
0.3327727,-0.22880407,-0.040801484,0.0,0.0
-0.40013102,0.14358868,-0.03609981,0.0,0.0
0.49179837,0.15709852,-0.07520674,0.0,0.0
-0.019464415,-0.2209195,-0.009610603,0.0,0.0
-0.30353966,0.057119418,-0.11780854,0.0,0.0
-0.25467134,0.11298409,0.008377375,0.0,0.0
-0.031418424,0.107298,0.032195136,0.0,0.0
0.020820055,0.042213567,-0.05170011,0.0,0.0
-0.8597835,-0.02979581,-0.027018677,0.0,0.0
-0.6755411,-0.15741815,-0.09297867,0.0,0.0
0.35687053,-0.0017001752,-0.09314162,0.0,0.0
0.3661567,-0.022327064,0.084458195,0.0,0.0
-0.16903335,0.13073023,0.0075286822,0.0,0.0
0.2987345,0.24191368,-0.049569495,0.0,0.0
-0.76440305,0.16859624,-0.12870301,0.0,0.0
-0.21639735,0.20302364,0.08135248,0.0,0.0
-0.47805813,-0.24612819,-0.124105826,0.0,0.0
-0.2132814,0.066990934,-0.10391042,0.0,0.0
0.07767739,0.097763635,-0.051385757,0.0,0.0
-0.408484,0.21718314,-0.024452375,0.0,0.0
0.17654467,-0.21476758,0.20745446,0.0,0.0
0.16592021,0.013770997,-0.020012867,0.0,0.0
0.80339974,-0.10707281,0.014646919,0.0,0.0
-0.11967182,-0.014334578,-0.00085707137,0.0,0.0
0.40694377,0.17750639,-0.11809968,0.0,0.0
-0.2826043,0.53082,-0.013600733,0.0,0.0
-0.001893143,0.15769885,-0.12824874,0.0,0.0
-0.13931091,-0.0926995,0.08583036,0.0,0.0
-0.10643362,-0.2446944,0.09343151,0.0,0.0
-0.42622402,-0.08818483,0.07588698,0.0,0.0
0.35899198,-0.18209976,0.26665682,0.0,0.0
-0.46350425,0.101134196,-0.017299607,0.0,0.0
0.7484902,-0.1368945,-0.0712315,0.0,0.0
0.060057327,0.05675306,-0.11825129,0.0,0.0
-0.0836363,0.17843942,-0.07105169,0.0,0.0
0.13713893,-0.15125142,0.015019338,0.0,0.0
0.4295502,-0.09785552,0.22201991,0.0,0.0
0.01178124,0.09006292,-0.15776953,0.0,0.0
-0.0602767,0.0012288252,-0.04187146,0.0,0.0
0.40663105,-0.022190163,0.02064303,0.0,0.0
-0.43348286,0.2505495,0.078677915,0.0,0.0
-0.048966724,0.04872187,0.036264203,0.0,0.0
0.55229366,-0.2237947,0.072863296,0.0,0.0
-0.698264,-0.18051112,0.09071317,0.0,0.0
-0.7578298,-0.111771986,-0.086026706,0.0,0.0
-0.19827339,-0.19016162,0.11480782,0.0,0.0
0.09576502,-0.009899182,0.27422357,0.0,0.0
0.69295603,-0.040561043,0.073261544,0.0,0.0
0.16871737,-0.11845925,0.1049416,0.0,0.0
-0.10298019,0.05435627,0.077812366,0.0,0.0
-0.025150662,-0.09015344,0.10164745,0.0,0.0
0.52147496,-0.15328278,-0.07556614,0.0,0.0
-0.34028012,-0.01185556,-0.039258286,0.0,0.0
-0.70935017,0.053479116,-0.13972029,0.0,0.0
0.18469207,0.027197687,-0.11185976,0.0,0.0
-0.7124458,0.15742081,-0.07911276,0.0,0.0
0.36638168,0.094097026,-0.08387104,0.0,0.0
-0.20642406,-0.07014486,0.027827322,0.0,0.0
0.3294233,0.32741833,0.032547995,0.0,0.0
0.46144074,0.015122814,-0.00050107297,0.0,0.0
0.60083485,0.10913405,-0.009902095,0.0,0.0
0.7158458,0.12407784,-0.1179054,0.0,0.0
-0.5610072,-0.12318019,0.12891607,0.0,0.0
0.42495582,-0.3152214,0.011247147,0.0,0.0
-0.66835725,-0.012510732,0.010003944,0.0,0.0
-0.2566983,-0.14085068,0.17665796,0.0,0.0
-0.5180995,-0.13452247,0.16452135,0.0,0.0
-0.6594972,-0.06277728,-0.088903554,0.0,0.0
-0.5893464,-0.06516775,-0.072689354,0.0,0.0
-0.17815529,0.03244353,-0.10554349,0.0,0.0
-0.89492166,-0.032901548,-0.11145241,0.0,0.0
0.061452534,0.16067603,-0.15769348,0.0,0.0
-0.10128487,-0.07648531,-0.1633076,0.0,0.0
0.45837012,-0.059337392,0.1047382,0.0,0.0
0.04465443,0.098716214,-0.054150354,0.0,0.0
-0.19921672,0.039889276,-0.10290144,0.0,0.0
-0.437984,-0.13159524,0.14705014,0.0,0.0
0.3709055,-0.18989177,-0.011157856,0.0,0.0
0.28849697,0.029103588,-0.15296264,0.0,0.0
-0.13104084,0.05968617,-0.083671175,0.0,0.0
0.02036956,-0.019817969,-0.14802863,0.0,0.0
-0.21766704,-0.20591252,0.037953388,0.0,0.0
0.33650222,-0.08903961,-0.07962735,0.0,0.0
0.5635659,-0.10615663,0.23058574,0.0,0.0
0.2138973,-0.13970828,0.19620158,0.0,0.0
0.0044213617,-0.2274551,0.11697541,0.0,0.0
0.60062915,-0.20168501,-0.040424142,0.0,0.0
-0.8165587,-0.14339907,-0.04778338,0.0,0.0
-0.12364237,0.13914919,-0.08098751,0.0,0.0
-0.068906,-0.00964083,0.12574612,0.0,0.0
-0.58042556,-0.09511687,0.22690822,0.0,0.0
-0.06740204,0.1209794,-0.047847155,0.0,0.0
-0.52123237,0.08241141,-0.09666568,0.0,0.0
0.20392984,0.016682744,-0.13145645,0.0,0.0
0.49561602,-0.16316181,0.089520045,0.0,0.0
-0.0120462,-0.1905371,0.21100755,0.0,0.0
0.59065276,-0.2512421,0.14038797,0.0,0.0
0.4101254,0.08914415,-0.13442753,0.0,0.0
-0.009677843,0.010679724,0.05646086,0.0,0.0
-0.58971107,0.053584337,-0.04194876,0.0,0.0
-0.108019,-0.111088455,0.045258228,0.0,0.0
-0.9082446,0.0050080367,0.0741735,0.0,0.0
-0.53554124,-0.023189234,-0.17788248,0.0,0.0
0.16042264,-0.0923796,0.009194641,0.0,0.0
-0.7546487,-0.052789774,-0.048790783,0.0,0.0
-0.6465481,-0.0708596,-0.1549734,0.0,0.0
0.13008709,-0.18511054,-0.096477345,0.0,0.0
0.18596561,0.122289844,-0.121673696,0.0,0.0
0.1280441,-0.11039933,0.1080093,0.0,0.0
-0.4315274,-0.08487872,0.030904593,0.0,0.0
-0.58318096,-0.055970654,0.044951532,0.0,0.0
0.08764502,0.008008978,-0.083444424,0.0,0.0
-0.11703047,0.20707986,0.02384156,0.0,0.0
-0.333236,0.03924306,0.06571479,0.0,0.0
-0.5006743,0.027753327,-0.15928273,0.0,0.0
-0.12814134,0.17240278,-0.04431202,0.0,0.0
0.1869083,-0.03765206,0.062334865,0.0,0.0
-0.608513,0.059202243,0.010978293,0.0,0.0
-0.2701874,-0.13904472,0.102243125,0.0,0.0
-0.66338354,-0.07345694,-0.14255387,0.0,0.0
0.75275904,-0.14732012,-0.15974359,0.0,0.0
-0.47371036,-0.17229638,0.15902354,0.0,0.0
0.12349109,-0.14776836,0.061902445,0.0,0.0
-0.8541924,0.1075227,-0.09633608,0.0,0.0
-0.06379263,-0.048880495,-0.1440934,0.0,0.0
-0.07549346,-0.17112662,0.08283827,0.0,0.0
0.06272799,-0.2627243,0.07273179,0.0,0.0
-0.13318118,0.1799322,0.0054865563,0.0,0.0
-0.74557024,0.109317824,-0.04653465,0.0,0.0
0.18882693,0.065634854,-0.14725031,0.0,0.0
0.6704702,-0.1897467,-0.07902715,0.0,0.0
0.738026,-0.040470343,-0.03474126,0.0,0.0
-0.16186246,-0.09330417,0.048433896,0.0,0.0
-0.06591305,0.07809444,-0.1222548,0.0,0.0
-0.3223262,-0.13620164,0.15665841,0.0,0.0
0.062053338,-0.18076697,0.11610956,0.0,0.0
0.17881349,-0.10316376,0.13416436,0.0,0.0
0.17821997,0.0030979104,0.0010196962,0.0,0.0
0.07325976,-0.15330587,-0.03919963,0.0,0.0
0.35302886,-0.025901007,0.068912275,0.0,0.0
-0.30831382,-0.05667412,0.058711383,0.0,0.0
0.02743696,-0.08007848,-0.011940842,0.0,0.0
0.047841724,0.007090993,-0.075637594,0.0,0.0
-0.2414349,-0.09414461,-0.01183044,0.0,0.0
-0.68570405,-0.0006937301,-0.15848134,0.0,0.0
0.6436321,0.14692953,-0.1214266,0.0,0.0
-0.5546916,0.11381282,-0.13498582,0.0,0.0
0.896964,0.016223202,-0.036619972,0.0,0.0
-0.090267725,0.020318648,-0.043383047,0.0,0.0
0.25338128,-0.005152855,-0.2631489,0.0,0.0
0.97842807,-0.116644114,-0.13453276,0.0,0.0
0.6362124,0.050641276,-0.22048306,0.0,0.0
0.555545,0.096071035,-0.11516044,0.0,0.0
-0.6177062,-0.20259105,0.21615644,0.0,0.0
0.48381025,-0.07516578,-0.050553344,0.0,0.0
-0.030165426,-0.15428282,0.29205093,0.0,0.0
0.21974896,-0.0841062,-0.11491643,0.0,0.0
0.6086155,-0.1380861,-0.011340235,0.0,0.0
-0.32638168,-0.08559602,-0.1680172,0.0,0.0
0.30919838,-0.1371075,-0.1777261,0.0,0.0
-0.03740403,-0.05887333,0.06801095,0.0,0.0
0.06849369,0.006986914,0.04218259,0.0,0.0
0.12402426,-0.0043681017,-0.16170153,0.0,0.0
0.29926288,-0.1822252,0.24823684,0.0,0.0
-0.11356757,-0.06567656,-0.12318499,0.0,0.0
0.44419014,0.06359086,-0.1358257,0.0,0.0
0.18952684,-0.1272021,-0.019009206,0.0,0.0
0.15991141,-0.2609878,0.25553355,0.0,0.0
0.6910007,0.083635405,-0.14821093,0.0,0.0
-0.035147276,0.057361376,-0.11374105,0.0,0.0
-0.40659505,-0.0734433,0.11621491,0.0,0.0
0.44962648,-0.04920038,0.3082966,0.0,0.0
0.47160184,-0.027057871,0.13213001,0.0,0.0
0.096631296,0.013881964,-0.10561614,0.0,0.0
-0.39702228,-0.24484494,0.0494314,0.0,0.0
-0.07636294,0.052819453,-0.13057348,0.0,0.0
0.10144744,-0.20166947,0.08511016,0.0,0.0
-0.07742376,0.1369979,-0.11497061,0.0,0.0
-0.011893992,0.09878974,0.05153445,0.0,0.0
-0.046491418,-0.15265419,0.09407745,0.0,0.0
-0.64490455,0.114216134,-0.099950634,0.0,0.0
-0.23288009,-0.2100883,0.13520502,0.0,0.0
-0.029823236,-0.0016399389,0.018475052,0.0,0.0
-0.5987674,-0.14232248,0.14835857,0.0,0.0
0.4180181,-0.19603066,-0.03238238,0.0,0.0
0.64881957,-0.1569475,0.13705087,0.0,0.0
-0.025591532,-0.20284429,0.04007918,0.0,0.0
0.69769645,-0.21253726,0.06804126,0.0,0.0
-0.3961112,0.14128427,-0.098268114,0.0,0.0
0.2257289,-0.14163314,0.08483382,0.0,0.0
0.07612606,-0.25895447,0.004573166,0.0,0.0
0.25461778,0.07511043,0.17855383,0.0,0.0
0.0005380964,0.1431643,-0.10194704,0.0,0.0
0.22729236,-0.043281242,-0.13898474,0.0,0.0
-0.7932951,0.013386586,-0.13720196,0.0,0.0
0.0091745155,-0.1410285,0.22845674,0.0,0.0
-0.15517083,-0.11725453,0.23144968,0.0,0.0
-0.3262282,-0.0438431,0.053123765,0.0,0.0
-0.21873146,-0.122068875,-0.06104585,0.0,0.0
-0.3165375,0.22467172,0.017437324,0.0,0.0
0.09022855,-0.1337402,-0.07033335,0.0,0.0
-0.33405676,0.12175568,-0.06930018,0.0,0.0
-0.2281309,-0.03167907,-0.03751787,0.0,0.0
0.0776563,0.05267653,-0.07793215,0.0,0.0
0.26680166,-0.14764877,0.2531939,0.0,0.0
0.74007803,-0.021952916,-0.09810834,0.0,0.0
-0.65240395,-0.13950226,-0.023394449,0.0,0.0
-0.4290451,0.022942606,-0.04120598,0.0,0.0
0.45955965,0.11680063,-0.105791345,0.0,0.0
-0.4043419,-0.027288878,-0.044857148,0.0,0.0
0.627418,-0.22108983,0.2505674,0.0,0.0
0.8321844,0.4408246,0.019087937,0.0,0.0
0.4683664,-0.23576723,-0.08113282,0.0,0.0
-0.009079502,-0.115780756,0.07669308,0.0,0.0
-0.43728188,0.04670262,-0.09187988,0.0,0.0
-0.024016391,-0.15914965,0.19867064,0.0,0.0
0.24766898,-0.11860435,0.010670619,0.0,0.0
-0.69976634,-0.003051549,-0.072189234,0.0,0.0
0.61346376,0.0026628731,-0.14054915,0.0,0.0
-0.14055817,-0.03296596,0.010176187,0.0,0.0
0.4304193,0.30756885,0.0013191798,0.0,0.0
-0.28300306,0.07675794,-0.14280988,0.0,0.0
0.29184604,0.1041878,-0.14707118,0.0,0.0
-0.5650758,-0.09923293,-0.065585114,0.0,0.0
0.07288939,0.25124815,-0.060378145,0.0,0.0
-0.070925444,0.011290123,-0.034250807,0.0,0.0
0.68250537,-0.16084841,0.14375308,0.0,0.0
0.6848529,-0.16120951,0.17496435,0.0,0.0
0.16278248,-0.17654741,0.04900937,0.0,0.0
-0.18746395,0.36069468,-0.050626207,0.0,0.0
0.52482164,0.48015678,0.04951369,0.0,0.0
0.7849426,-0.08729466,-0.042837735,0.0,0.0
-0.42585227,-0.0041445773,0.062882304,0.0,0.0
0.18312964,0.075267814,-0.13865982,0.0,0.0
-0.31482401,-0.20826957,-0.01947798,0.0,0.0
0.7700441,-0.123881094,-0.056143936,0.0,0.0
-0.8704965,-0.09550775,-0.03250871,0.0,0.0
-0.09412298,-0.07157602,-0.046580687,0.0,0.0
-0.5070515,0.0064784447,0.005643855,0.0,0.0
-0.1628272,-0.011280395,0.119316004,0.0,0.0
0.37600198,-0.096292876,0.15455216,0.0,0.0
0.39415196,-0.19523087,0.034495402,0.0,0.0
-0.15401664,0.11543915,-0.004447812,0.0,0.0
-0.7789014,-0.049365584,-0.022086494,0.0,0.0
-0.20032513,-0.13430168,0.2201033,0.0,0.0
0.76495403,-0.0682902,0.026799021,0.0,0.0
-0.51372015,0.030746492,-0.07274316,0.0,0.0
0.21703772,-0.004988309,-0.034694504,0.0,0.0
0.1429417,-0.18746221,0.19885123,0.0,0.0
0.7757473,0.095303856,-0.030365972,0.0,0.0
-0.14025497,-0.058829222,0.14443272,0.0,0.0
0.34002474,-0.22960663,0.17311397,0.0,0.0
0.30923802,0.3467795,-0.070671484,0.0,0.0
-0.030834284,-0.20713495,-0.104721844,0.0,0.0
0.89788145,-0.19157316,0.017072652,0.0,0.0
0.19689323,0.23152979,-0.07038938,0.0,0.0
0.797059,-0.03072499,0.026802596,0.0,0.0
-0.07617644,-0.06687312,0.067548715,0.0,0.0
0.83154523,0.22148849,0.025038691,0.0,0.0
-0.057353966,-0.18546242,0.02324043,0.0,0.0
-0.21254656,-0.21087664,0.07723763,0.0,0.0
-0.4965684,-0.12996733,-0.078506365,0.0,0.0
0.16731289,-0.13310637,0.07925219,0.0,0.0
0.36252797,-0.21187398,-0.13152331,0.0,0.0
-0.28116807,-0.054741852,-0.073068745,0.0,0.0
-0.6176349,-0.05901052,-0.12932113,0.0,0.0
0.76945066,0.13462077,-0.02702823,0.0,0.0
-0.55045354,-0.24466966,-0.08429349,0.0,0.0
0.03596488,0.257488,-0.06892383,0.0,0.0
0.8154364,-0.1837261,0.02155413,0.0,0.0
0.25924724,0.07892012,-0.062934905,0.0,0.0
-0.6506793,0.1894442,-0.10761751,0.0,0.0
-0.51127535,-0.00698774,0.12099409,0.0,0.0
0.3922924,0.060529213,-0.16127656,0.0,0.0
-0.48861992,-0.1388194,-0.10992759,0.0,0.0
0.62904006,0.039247688,-0.12221759,0.0,0.0
-0.037190504,-0.21448115,0.09324301,0.0,0.0
-0.6898128,-0.12792513,-0.13318896,0.0,0.0
-0.5453799,-0.0220274,-0.03123828,0.0,0.0
0.32863262,0.33713284,-0.05300726,0.0,0.0
-0.39920166,-0.08515231,0.13427728,0.0,0.0
0.32529017,0.0004250849,-0.04985019,0.0,0.0
0.108222246,0.011043651,0.04035362,0.0,0.0
-0.048333313,-0.1385256,0.17096332,0.0,0.0
-0.08380548,0.14722358,-0.05634053,0.0,0.0
0.6589816,-0.11923236,-0.1330352,0.0,0.0
0.7114345,-0.065182775,0.019108577,0.0,0.0
0.45193562,-0.042271826,-0.034260202,0.0,0.0
-0.30654797,-0.104415394,0.05654448,0.0,0.0
-0.10716952,-0.12357897,-0.111642696,0.0,0.0
-0.7617906,0.11046062,-0.16765824,0.0,0.0
0.08168263,-0.15520851,0.10902359,0.0,0.0
-0.053760108,-0.077141084,0.045354575,0.0,0.0
-0.610767,-0.04143533,0.04312754,0.0,0.0
0.28241107,-0.015603823,0.10325879,0.0,0.0
0.03990714,-0.044092473,-0.078256026,0.0,0.0
0.76243585,0.42383206,0.016140584,0.0,0.0
-0.6292754,-0.15862979,0.023414757,0.0,0.0
0.6753408,-0.17472588,0.121384546,0.0,0.0
0.03839712,0.08868885,0.20731951,0.0,0.0
0.37654775,0.11131331,-0.067944854,0.0,0.0
0.41291264,0.14404453,-0.12415796,0.0,0.0
0.9026827,0.021314412,-0.09068807,0.0,0.0
0.3237252,0.082213864,-0.031551536,0.0,0.0
0.6360693,0.09778867,-0.04618217,0.0,0.0
0.033463914,0.19208705,-0.31883803,0.0,0.0
0.35384703,0.29931086,-0.028441193,0.0,0.0
-0.67220426,-0.03347654,0.08608228,0.0,0.0
0.21117146,0.24929743,-0.047090244,0.0,0.0
-0.4581813,-0.105236575,0.20048033,0.0,0.0
-0.25990933,-0.18627097,-0.003962373,0.0,0.0
0.6010175,-0.18435538,0.1363355,0.0,0.0
-1.0334939,0.14166275,-0.11920724,0.0,0.0
-0.7366251,-0.122103125,-0.058275327,0.0,0.0
-0.6543999,0.089543425,-0.15509005,0.0,0.0
0.06146527,-0.14477707,0.18241344,0.0,0.0
0.31315345,-0.07122004,0.034780882,0.0,0.0
-0.37323785,-0.017533785,0.046228874,0.0,0.0
-0.12943858,-0.26583087,0.10394705,0.0,0.0
-0.7550936,-0.079111785,-0.008564972,0.0,0.0
0.66929185,0.10709413,-0.035598733,0.0,0.0
0.17768091,-0.13454188,0.14328091,0.0,0.0
0.56247497,-0.12448389,0.10249338,0.0,0.0
-0.60186124,-0.09608236,0.029884595,0.0,0.0
0.1268502,-0.21616198,0.26180378,0.0,0.0
0.09118974,-0.14665943,0.124203146,0.0,0.0
-0.04068177,-0.13553269,0.22800402,0.0,0.0
0.60708946,0.31646636,-0.037386797,0.0,0.0
0.5668247,0.05338424,-0.115186386,0.0,0.0
-0.7474824,0.027199624,-0.09057654,0.0,0.0
0.19634612,0.12261074,-0.13618311,0.0,0.0
-0.5113353,-0.05953587,-0.021962594,0.0,0.0
0.22659622,-0.041137066,0.018822638,0.0,0.0
0.29843578,0.25834036,0.017234305,0.0,0.0
0.3910222,-0.0643037,0.1382676,0.0,0.0
0.70570695,-0.0457535,-0.016383665,0.0,0.0
0.65756154,-0.18052691,0.075348586,0.0,0.0
0.4253002,0.26472038,-0.12815277,0.0,0.0
-0.044249766,0.053821746,-0.14324845,0.0,0.0
-0.33936173,-0.22854033,0.04265037,0.0,0.0
0.20175242,0.04036802,-0.08064124,0.0,0.0
0.5546854,-0.046248324,-0.15401454,0.0,0.0
0.3027453,-0.20451626,0.2146901,0.0,0.0
0.37119085,-0.2541726,0.24238363,0.0,0.0
-0.067429855,-0.07974048,-0.07253802,0.0,0.0
0.33779004,0.39141294,-0.11263961,0.0,0.0
0.16544934,-0.07299496,-0.057549935,0.0,0.0
-0.19417518,0.07278874,0.07920217,0.0,0.0
-0.0567099,-0.0833595,-0.09268901,0.0,0.0
0.45443776,0.013219826,0.0380943,0.0,0.0
-0.36873144,0.10086862,-0.13573292,0.0,0.0
-0.2260806,-0.13644992,0.14155966,0.0,0.0
0.42610437,-0.09475603,0.07874491,0.0,0.0
0.15067463,0.06604369,-0.11934337,0.0,0.0
-0.08792771,-0.04412749,0.06327986,0.0,0.0
0.179454,-0.15931705,-0.099751666,0.0,0.0
0.71868235,-0.14827225,0.17156044,0.0,0.0
-0.1254315,-0.21140313,0.04746039,0.0,0.0
0.115190536,-0.04265641,-0.10647378,0.0,0.0
-0.036694344,-0.23659205,0.18128495,0.0,0.0
-0.46166337,-0.07149521,0.08362653,0.0,0.0
-0.48263073,0.11488396,-0.111831345,0.0,0.0
-0.7217476,-0.08451175,0.11297802,0.0,0.0
0.51384544,-0.1340138,-0.07421364,0.0,0.0
0.5315812,0.17333142,-0.11218075,0.0,0.0
-0.83828664,0.25070858,-0.18054539,0.0,0.0
-0.2311572,-0.18169178,0.26754355,0.0,0.0
0.64030707,-0.020261219,0.00032504788,0.0,0.0
0.47074762,0.32105744,0.06287685,0.0,0.0
0.050937932,-0.15286417,0.14818615,0.0,0.0
0.6039113,-0.10078464,-0.11337236,0.0,0.0
-0.41888344,0.18100226,-0.08485598,0.0,0.0
-0.9057705,0.11873438,-0.10874869,0.0,0.0
0.27272016,-0.11763913,0.08916544,0.0,0.0
0.72488993,-0.11351268,-0.049120795,0.0,0.0
0.3726366,-0.045737714,-0.15600769,0.0,0.0
-0.264418,0.0062458175,-0.071170196,0.0,0.0
0.44305253,0.07220828,-0.06889304,0.0,0.0
0.8562336,0.22932026,0.040909503,0.0,0.0
0.5726487,-0.06039956,-0.120601445,0.0,0.0
-0.87657243,-0.07285044,0.045759216,0.0,0.0
-0.14524782,-0.06471811,-0.11026825,0.0,0.0
-0.21433625,0.1809364,0.11362906,0.0,0.0
0.5086303,0.12169961,-0.11147645,0.0,0.0
-0.21827072,0.17247072,-0.06123772,0.0,0.0
-0.43681052,0.07133633,-0.055524405,0.0,0.0
0.68047684,0.21484752,-0.06635393,0.0,0.0
0.47569004,-0.124439456,0.0051345904,0.0,0.0
0.5618738,-0.014503584,-0.12477516,0.0,0.0
0.45858702,-0.23449431,-0.012811684,0.0,0.0
0.34021986,-0.10296758,-0.12158874,0.0,0.0
-0.05740441,-0.10920858,-0.03828096,0.0,0.0
-0.85507965,-0.21017405,0.00029847282,0.0,0.0
0.42351165,-0.12644348,0.0343967,0.0,0.0
0.027331296,-0.172744,0.24985516,0.0,0.0
-0.11834453,-0.043100175,0.011704087,0.0,0.0
-0.70229053,-0.13627435,0.037082378,0.0,0.0
-0.009454372,-0.07091987,-0.010565848,0.0,0.0
-0.8023372,-0.13587308,0.0047764843,0.0,0.0
-0.2644749,-0.26916945,-0.01062027,0.0,0.0
0.37548554,0.18230332,-0.04368081,0.0,0.0
0.31539682,0.22692066,-0.011913022,0.0,0.0
0.5602945,0.02741285,0.12430652,0.0,0.0
-0.53789747,-0.21055242,0.1505766,0.0,0.0
0.23572855,-0.11149326,0.07708348,0.0,0.0
-0.1510339,-0.11302137,0.10364848,0.0,0.0
-0.11957084,0.031377975,-0.12358463,0.0,0.0
-0.583221,-0.012381721,-0.04951004,0.0,0.0
-0.37242624,0.3836262,-0.10976872,0.0,0.0
-0.21246184,0.089083806,0.021799626,0.0,0.0
0.83701456,0.060782526,-0.05013829,0.0,0.0
-0.1456703,-0.28337952,0.13280365,0.0,0.0
0.4158449,0.26043102,0.0007473836,0.0,0.0
-0.5007019,-0.051766273,-0.032100614,0.0,0.0
0.36249846,-0.0016060249,-0.06211161,0.0,0.0
-0.05766327,-0.23854044,0.003600536,0.0,0.0
0.10643265,0.038237378,0.022003071,0.0,0.0
-0.1744489,0.078019656,-0.020037275,0.0,0.0
0.20134778,0.017133068,-0.030402115,0.0,0.0
-0.47814474,-0.18075389,-0.09776479,0.0,0.0
-0.035060115,0.11020191,-0.13663979,0.0,0.0
0.7183808,0.17527615,-0.09852562,0.0,0.0
-0.5859653,-0.22847374,0.20259267,0.0,0.0
-0.3169678,-0.23095231,-0.0941446,0.0,0.0
-0.25995338,0.022958444,0.027191862,0.0,0.0
0.22434402,-0.012595069,-0.0854119,0.0,0.0
0.49804187,-0.011715594,-0.13511056,0.0,0.0
-0.395412,-0.45703298,0.46024457,0.0,0.0
0.19601777,-0.21779582,0.15811552,0.0,0.0
0.2398447,0.46060252,0.042083804,0.0,0.0
0.607353,-0.12651603,0.084765345,0.0,0.0
-0.2727666,-0.08416131,0.047016308,0.0,0.0
0.6367243,-0.0041006943,-0.08353653,0.0,0.0
-0.17805211,-0.06838604,0.06268579,0.0,0.0
-0.854144,0.19308725,-0.110597774,0.0,0.0
-0.6085367,-0.035186283,-0.004809517,0.0,0.0
0.6145809,-0.06265764,0.07468777,0.0,0.0
0.8779318,-0.1563572,-0.009685143,0.0,0.0
-0.53831565,-0.17383112,-0.07960655,0.0,0.0
-0.3198451,0.12464523,-0.023117688,0.0,0.0
-0.709463,0.256546,-0.08751583,0.0,0.0
0.5624341,-0.1984349,0.07614865,0.0,0.0
-0.049178053,-0.19700703,-0.034077466,0.0,0.0
-0.61039066,0.36921462,0.20795919,0.0,0.0
0.6552846,-0.01792001,-0.006745576,0.0,0.0
