x,y,z,f,scl1
-0.75450313,-0.16792567,0.0071466533,0.0,0.0
-0.02891218,0.023202421,0.14647435,0.0,0.0
-0.36244515,-0.24360025,0.10176839,0.0,0.0
0.7128349,0.06175945,-0.09934063,0.0,0.0
0.3861455,-0.20156792,-0.0034654592,0.0,0.0
0.56703705,-0.22626448,0.20904897,0.0,0.0
-0.084146015,-0.14692594,0.08580593,0.0,0.0
0.010178223,-0.0044104625,0.037738003,0.0,0.0
-0.26200238,-0.0074804164,0.10100554,0.0,0.0
-0.24559295,-0.017190943,-0.060201995,0.0,0.0
-0.7809366,-0.013608875,-0.094174914,0.0,0.0
-0.3094216,0.2892293,0.082462594,0.0,0.0
-0.38402954,0.0822021,-0.008848051,0.0,0.0
-0.55074275,0.07534027,0.062018316,0.0,0.0
0.23359415,-0.18133888,0.04276902,0.0,0.0
-0.36009297,0.058423124,-0.022238098,0.0,0.0
0.6596172,-0.1538202,-0.05269826,0.0,0.0
-0.087655365,-0.1382923,-0.068188116,0.0,0.0
-0.7829249,-0.10269881,0.024901949,0.0,0.0
0.26580366,-0.067026,0.14366074,0.0,0.0
-0.77382594,0.08535625,-0.05279715,0.0,0.0
0.22909726,0.049617387,0.0123417955,0.0,0.0
0.2581839,-0.21991529,0.06253854,0.0,0.0
-0.50896364,-0.11863728,-0.066678844,0.0,0.0
-1.0114207,0.025450043,-0.017428914,0.0,0.0
-0.75346744,-0.0052312096,-0.11927719,0.0,0.0
-0.6717995,-0.17826079,0.026305506,0.0,0.0
-0.13107565,-0.03955898,-0.13638808,0.0,0.0
-0.4213189,-0.0120668905,9.309081e-05,0.0,0.0
-0.73952425,-0.155749,0.16097191,0.0,0.0
-0.23750934,0.040902108,-0.06484951,0.0,0.0
0.64250946,-0.20559178,0.25026408,0.0,0.0
-0.019039162,0.06114049,-0.16406436,0.0,0.0
0.024071077,0.057416413,-0.071784966,0.0,0.0
-0.12374004,0.094578505,-0.11245296,0.0,0.0
0.27485028,0.13494387,-0.05772745,0.0,0.0
0.44760695,-0.1712134,-0.1200582,0.0,0.0
0.34126115,0.086080916,-0.14619786,0.0,0.0
-0.22608112,0.30787838,0.0072864112,0.0,0.0
0.04666636,-0.06550022,0.0777121,0.0,0.0
-0.040502407,-0.055504464,-0.10478877,0.0,0.0
-0.023815786,-0.005503484,0.082566835,0.0,0.0
-0.054965403,0.103954114,0.058897525,0.0,0.0
0.5496598,-0.12499399,-0.010343549,0.0,0.0
-0.86645365,-0.076951794,0.024392761,0.0,0.0
0.08392103,0.03376057,0.045418017,0.0,0.0
-0.55342,0.033166625,-0.09584346,0.0,0.0
0.6594681,-0.107327126,0.03666823,0.0,0.0
-1.1278456,0.06365162,0.059830725,0.0,0.0
-0.060496796,-0.22833668,0.24105942,0.0,0.0
-0.0016079027,-0.19923115,0.18148834,0.0,0.0
-0.2364262,-0.08414718,-0.00476275,0.0,0.0
0.2750044,0.18802452,0.11395229,0.0,0.0
0.6808449,0.06671752,0.09438656,0.0,0.0
-0.6886951,0.102022626,-0.10044456,0.0,0.0
-0.693274,-0.0381984,-0.07390396,0.0,0.0
0.0074952533,0.035133995,-0.17229365,0.0,0.0
-0.5145264,0.2795861,-0.07910684,0.0,0.0
-0.5417301,-0.06813463,0.014762976,0.0,0.0
0.077842064,-0.10784057,0.004967985,0.0,0.0
0.44358382,-0.13215204,-0.07140766,0.0,0.0
0.23229766,-0.13372247,0.20978396,0.0,0.0
-0.5128332,-0.053109083,-0.0056100893,0.0,0.0
0.0052477033,-0.21205768,0.2191776,0.0,0.0
-0.8835223,-0.21208845,-0.29467762,0.0,0.0
0.8877434,-0.15908547,0.0986104,0.0,0.0
-0.58607453,0.02882467,-0.09648947,0.0,0.0
0.044175554,-0.2410992,0.15844536,0.0,0.0
-0.5613912,-0.13142279,0.021977706,0.0,0.0
0.039890703,0.21786633,-0.08814118,0.0,0.0
-0.31401414,0.0020892576,-0.006157396,0.0,0.0
0.11317409,-0.1193563,-0.13704947,0.0,0.0
0.53185374,-0.010585954,-0.18207897,0.0,0.0
0.5578934,-0.14022855,-0.025124284,0.0,0.0
0.6011287,-0.06217567,-0.13759515,0.0,0.0
-0.96984226,-0.1260396,-0.027324311,0.0,0.0
-0.1390661,-0.116402164,-0.073439665,0.0,0.0
-0.15364964,-0.11141757,0.23528732,0.0,0.0
0.1209996,-0.12983918,0.054405082,0.0,0.0
-0.44143015,-0.21962808,0.050937165,0.0,0.0
0.5343436,-0.2098434,-0.08128973,0.0,0.0
-0.1362728,0.13707942,-0.07403716,0.0,0.0
-0.4992458,-0.08931053,0.20432879,0.0,0.0
0.9575957,-0.12529495,-0.09570996,0.0,0.0
-0.70995116,-0.22364345,-0.02926316,0.0,0.0
-0.42725402,0.2140322,-0.05489337,0.0,0.0
0.21367857,-0.11539383,0.18039429,0.0,0.0
-0.5454619,-0.08763727,0.09972463,0.0,0.0
0.5196596,0.13163249,-0.10412193,0.0,0.0
0.055170298,-0.037122905,-0.17479815,0.0,0.0
0.15297501,0.12536979,-0.08491879,0.0,0.0
0.40494168,-0.23642385,0.351952,0.0,0.0
0.21452834,-0.2291481,0.07777162,0.0,0.0
0.31764525,-0.13972555,-0.012052623,0.0,0.0
0.2278425,-0.15938662,0.28313348,0.0,0.0
0.6516079,-0.07358651,-0.13371049,0.0,0.0
0.046157274,-0.020208096,0.102504514,0.0,0.0
-0.62124825,-0.031974696,-0.018517377,0.0,0.0
0.6037324,0.06398572,-0.18081872,0.0,0.0
-0.24468835,0.033051766,-0.011109727,0.0,0.0
0.6652882,-0.20789236,0.16850717,0.0,0.0
0.22703843,-0.0765292,0.015167537,0.0,0.0
0.306002,0.008755722,-0.06648234,0.0,0.0
-0.9298329,0.081143826,-0.11711056,0.0,0.0
-0.24777657,0.22434726,-0.07559235,0.0,0.0
0.083983414,-0.018719565,-0.0039564236,0.0,0.0
-0.12603882,-0.20247273,0.13314863,0.0,0.0
-0.20065273,0.10953569,-0.009688944,0.0,0.0
-0.5799384,0.15525542,-0.14632063,0.0,0.0
-0.7574399,0.14437328,-0.120371245,0.0,0.0
0.18152776,-0.07386544,0.05775579,0.0,0.0
0.08978728,0.022864303,-0.048832748,0.0,0.0
-0.36074838,-0.010488559,0.077530295,0.0,0.0
-0.6553915,-0.04218012,-0.09377946,0.0,0.0
0.5598757,-0.21550435,0.06853688,0.0,0.0
0.32804674,-0.050918184,0.0048952214,0.0,0.0
0.5783983,0.106230594,-0.030695224,0.0,0.0
0.14241977,0.070116885,-0.03319024,0.0,0.0
0.113584995,-0.2468769,0.13635485,0.0,0.0
-0.14916603,0.07197246,-0.097418666,0.0,0.0
-0.44847238,0.124886066,-0.07355519,0.0,0.0
-0.29423243,-0.15324073,0.11253073,0.0,0.0
-0.72475857,0.0544952,-0.13710299,0.0,0.0
0.007947514,0.043059327,-0.044937577,0.0,0.0
-0.20156755,-0.20746984,0.15235867,0.0,0.0
-0.39802867,0.09188731,-0.05925448,0.0,0.0
0.07240724,0.3053787,-0.15263817,0.0,0.0
0.04544377,0.19343495,-0.11571274,0.0,0.0
-0.60436374,-0.03585889,0.004318504,0.0,0.0
0.42491743,-0.06887392,0.049306758,0.0,0.0
-0.36828008,-0.1991663,-0.010063537,0.0,0.0
-0.82168007,-0.040344533,-0.049217828,0.0,0.0
-0.10489107,0.003698312,0.081460595,0.0,0.0
0.14998248,0.18762355,-0.12289616,0.0,0.0
-0.33314496,0.26163507,0.17288727,0.0,0.0
-0.2925078,-0.06451208,-0.17511797,0.0,0.0
-0.7936905,-0.03879734,0.014755041,0.0,0.0
0.085719325,-0.17841104,0.2438186,0.0,0.0
-0.36675987,-0.1605488,-0.0390639,0.0,0.0
-0.44632673,0.016616438,-0.035075504,0.0,0.0
-0.3647525,0.08611814,-0.04276523,0.0,0.0
0.14883016,0.010758992,0.067387946,0.0,0.0
0.117162205,0.3307147,-0.10486578,0.0,0.0
0.54533535,-0.11702027,-0.1506632,0.0,0.0
0.66732526,-0.14291877,-0.17606048,0.0,0.0
0.5533773,-0.2601544,0.08049863,0.0,0.0
-0.75925684,-0.18536629,-0.07278746,0.0,0.0
-0.8585592,0.16169356,-0.12282575,0.0,0.0
-0.5800779,-0.20741755,-0.057767805,0.0,0.0
0.47580266,-0.04309554,0.1022217,0.0,0.0
-0.42733687,0.20775364,-0.05364362,0.0,0.0
0.2953995,-0.14251721,0.11954266,0.0,0.0
-0.46243846,-0.15751006,0.02464924,0.0,0.0
0.35727307,0.12388812,-0.09018959,0.0,0.0
-0.62537456,-0.120605,-0.15049563,0.0,0.0
-0.33463854,-0.055560116,0.08799348,0.0,0.0
-0.67294765,0.010327701,-0.21494736,0.0,0.0
0.46842358,0.02051813,-0.01612085,0.0,0.0
-0.072865605,-0.08747301,0.0031769644,0.0,0.0
-0.8237331,-0.17175947,0.15737009,0.0,0.0
0.14058013,-0.03375429,0.3645231,0.0,0.0
-0.34907237,0.0856408,-0.062597424,0.0,0.0
-0.42838123,0.12860915,0.031466864,0.0,0.0
0.50708634,0.1302406,-0.07135011,0.0,0.0
0.32480317,0.20465323,-0.103378125,0.0,0.0
-0.7685718,-0.079181746,-0.013668624,0.0,0.0
-0.40541512,0.112152815,-0.1628554,0.0,0.0
-0.32145548,0.17271811,-0.11079141,0.0,0.0
-0.13044025,0.07844123,-0.08970953,0.0,0.0
-0.8612417,-0.0024465215,-0.09588026,0.0,0.0
0.20947425,-0.081423156,-0.10379522,0.0,0.0
0.3169455,0.24396293,-0.04630643,0.0,0.0
-0.049312375,-0.043666393,-0.02308618,0.0,0.0
-0.42983723,0.029417451,0.086631544,0.0,0.0
-0.8671992,0.18120535,-0.09509716,0.0,0.0
-0.18867078,-0.2112048,0.066917,0.0,0.0
0.31634757,-0.07471556,0.1334069,0.0,0.0
0.19145364,-0.12006599,0.1229421,0.0,0.0
0.197002,-0.10801018,0.18379036,0.0,0.0
-0.28757638,-0.14637211,0.19174734,0.0,0.0
-0.55674016,0.30643132,-0.10323065,0.0,0.0
0.041599587,-0.0849491,0.0093909465,0.0,0.0
-0.12423023,-0.16489987,0.15645038,0.0,0.0
0.4752536,-0.07767377,0.17587307,0.0,0.0
-0.15114771,-0.062793136,-0.10940497,0.0,0.0
0.11032595,0.05314843,-0.15898599,0.0,0.0
-0.5233443,0.004985784,-0.08997278,0.0,0.0
-0.42149296,0.33479616,-0.044474486,0.0,0.0
-0.50954235,-0.02305262,-0.02746912,0.0,0.0
0.77591556,-0.19201486,-0.0280087,0.0,0.0
0.03416844,0.054049764,-0.095071636,0.0,0.0
-0.6125502,-0.0063385298,-0.10736848,0.0,0.0
0.2610174,-0.18760304,0.27299112,0.0,0.0
0.54549754,0.37926143,-0.0972371,0.0,0.0
0.557755,-0.17435396,-0.081980035,0.0,0.0
0.41783726,0.23700379,-0.040328268,0.0,0.0
0.0684269,0.22873603,-0.10194384,0.0,0.0
-0.8052931,0.15385512,-0.11892152,0.0,0.0
0.4722236,-0.14803633,0.022291265,0.0,0.0
0.41875187,0.06070232,-0.057772785,0.0,0.0
-0.31468722,-0.3057995,0.21403897,0.0,0.0
-0.17836423,0.18274617,-0.11971146,0.0,0.0
0.5258535,0.11126755,-0.0035905582,0.0,0.0
0.4305474,-0.06679004,-0.104734324,0.0,0.0
-0.7906999,-0.0008384605,-0.06057453,0.0,0.0
0.6800214,-0.15721925,0.16581844,0.0,0.0
-0.53175783,0.058886632,-0.13450617,0.0,0.0
0.66830987,0.3897814,-0.09074126,0.0,0.0
0.58838904,-0.001215376,0.004665222,0.0,0.0
0.1354794,-0.16279659,0.2080718,0.0,0.0
0.44360933,0.3655722,-0.09266775,0.0,0.0
0.29417175,-0.1986073,0.15929894,0.0,0.0
0.18192323,0.077449694,-0.13232224,0.0,0.0
-0.06664197,-0.035595782,0.10266927,0.0,0.0
0.2944841,0.05827535,-0.13137916,0.0,0.0
-0.7318858,0.017018778,0.03468786,0.0,0.0
-0.1674774,0.02510329,-0.01857319,0.0,0.0
-0.36360368,0.18208958,-0.1339454,0.0,0.0
0.4147005,-0.18766442,0.21910399,0.0,0.0
0.0031947666,-0.13646567,0.21482596,0.0,0.0
0.1879466,-0.029548964,-0.11331017,0.0,0.0
0.25289175,0.025669072,0.059614815,0.0,0.0
0.59790117,-0.12291046,0.113707446,0.0,0.0
-0.8055278,0.0029491938,-0.06562702,0.0,0.0
-0.5776344,0.30767334,-0.056921892,0.0,0.0
0.32833838,-0.18344484,0.040412247,0.0,0.0
-0.7404372,-0.17564426,0.16475435,0.0,0.0
0.5674753,-0.16063143,-0.052636623,0.0,0.0
-0.19368845,-0.0059226966,-0.13797717,0.0,0.0
0.059995875,-0.114505015,-0.033455167,0.0,0.0
-0.051443666,-0.028181368,-0.020731675,0.0,0.0
-0.06806404,-0.014775899,0.01817197,0.0,0.0
-0.10885849,0.0016948564,0.07614369,0.0,0.0
-0.34943566,0.08806062,-0.059477136,0.0,0.0
-0.59321856,-0.11344716,0.08803418,0.0,0.0
0.1586233,0.10737574,-0.13609293,0.0,0.0
-0.1563983,-0.1637274,0.24382934,0.0,0.0
0.020570587,-0.14161624,0.23305768,0.0,0.0
0.41945368,0.22305775,-0.0035444982,0.0,0.0
0.28698835,0.07481077,-0.083310045,0.0,0.0
0.296987,0.17329547,-0.16266316,0.0,0.0
-0.7128547,0.008659988,-0.06429163,0.0,0.0
0.7991669,-0.11158639,-0.048139837,0.0,0.0
-0.3493818,-0.11022441,0.029515691,0.0,0.0
-0.4171833,-0.16820864,-0.01851577,0.0,0.0
-0.51687163,-0.16788049,0.15324877,0.0,0.0
-0.84130037,-0.19940205,0.024351165,0.0,0.0
0.5105247,0.26050663,-0.10170295,0.0,0.0
0.095724605,-0.0028760247,-0.13885652,0.0,0.0
0.99895626,-0.10295027,0.022181857,0.0,0.0
-0.48707524,-0.08515375,0.063893646,0.0,0.0
0.5391476,-0.1917456,0.15850039,0.0,0.0
-0.34152222,0.257076,-0.08855294,0.0,0.0
-0.21042965,-0.114605114,0.08055198,0.0,0.0
0.21555133,0.33221912,0.016089845,0.0,0.0
0.087670535,-0.18161581,0.13271923,0.0,0.0
-0.46496245,-0.24541575,-0.080878176,0.0,0.0
0.52268976,0.5107867,-0.12433896,0.0,0.0
-0.29944912,-0.066261716,0.13198185,0.0,0.0
0.13452421,0.2370288,-0.104136854,0.0,0.0
0.089316316,0.07063619,-0.040521495,0.0,0.0
-0.01999847,0.08732715,-0.13539502,0.0,0.0
-0.28755984,0.005020999,-0.112675466,0.0,0.0
-0.3451628,-0.2036064,-0.014734691,0.0,0.0
-0.15364972,-0.17567787,0.16211586,0.0,0.0
-0.5370421,0.06829669,-0.10059232,0.0,0.0
-0.13485317,-0.07513516,0.02411742,0.0,0.0
0.17167276,-0.01102608,0.036060024,0.0,0.0
0.72446144,-0.057012472,-0.08691149,0.0,0.0
0.19802435,0.029027892,-0.16159879,0.0,0.0
-0.46567923,-0.112224594,0.10450957,0.0,0.0
0.0073173367,-0.16890483,0.21240056,0.0,0.0
0.56147575,0.1482731,-0.15152316,0.0,0.0
0.26797143,0.023807831,0.034047127,0.0,0.0
-0.32534862,-0.057965048,-0.08567434,0.0,0.0
-0.42859432,-0.16036285,0.107801914,0.0,0.0
0.44736612,-0.5766485,0.114843935,0.0,0.0
-0.10149617,0.05807946,-0.13075097,0.0,0.0
-0.4603327,0.264826,-0.030038629,0.0,0.0
-0.65894043,-0.13403054,0.01327344,0.0,0.0
-0.23883611,0.04775186,-0.1788555,0.0,0.0
-0.024691433,-0.24227323,0.20723218,0.0,0.0
0.05201571,0.068137124,-0.17153057,0.0,0.0
-0.35213718,-0.19125293,0.16650677,0.0,0.0
-0.45864043,-0.19863926,0.297893,0.0,0.0
-0.45361272,0.20777011,-0.054558236,0.0,0.0
-0.44628075,-0.017694673,-0.115495905,0.0,0.0
-0.21826547,0.1508315,0.0787975,0.0,0.0
-0.18343252,-0.04372,0.15423757,0.0,0.0
-0.64478683,-0.13246828,-0.014369649,0.0,0.0
0.088951856,0.051198065,-0.079610795,0.0,0.0
-0.6388008,-0.066450424,-0.11364536,0.0,0.0
0.33369032,-0.24103007,0.28709084,0.0,0.0
-0.22648378,0.07824904,-0.09461804,0.0,0.0
-0.14484541,0.068155535,0.015695293,0.0,0.0
0.76868,0.32046705,-0.030155212,0.0,0.0
0.5175475,-0.014143116,-0.112706676,0.0,0.0
0.14969482,-0.12721252,-0.18846379,0.0,0.0
0.39301357,-0.15334901,0.013759945,0.0,0.0
0.25407526,-0.07013123,0.027214704,0.0,0.0
-0.5126459,0.0011951746,-0.09667519,0.0,0.0
-0.7420228,0.0033575776,-0.1063393,0.0,0.0
0.30189484,0.22734843,-0.015642166,0.0,0.0
0.54349977,-0.13236888,-0.0011232035,0.0,0.0
0.117625676,-0.037188727,-0.07636486,0.0,0.0
-0.68044734,-0.10994075,-0.09296165,0.0,0.0
-0.18226744,0.11468687,0.03741372,0.0,0.0
0.25482666,0.05587972,-0.012834898,0.0,0.0
-0.38492036,0.21196663,-0.030392807,0.0,0.0
0.40571538,0.018621465,-0.112016924,0.0,0.0
-0.5893606,-0.0729206,-0.09439226,0.0,0.0
0.14141178,-0.20242102,0.10395819,0.0,0.0
-0.008872597,-0.20114277,0.3359267,0.0,0.0
-0.77286476,-0.24727456,-0.042783387,0.0,0.0
-0.54631156,-0.093885556,-0.07159255,0.0,0.0
-0.037924916,0.026076254,-0.15124054,0.0,0.0
0.36868092,0.055743076,-0.13037984,0.0,0.0
-0.34799948,-0.05228479,0.044496447,0.0,0.0
0.61330336,0.3589879,0.06447182,0.0,0.0
-0.10563956,-0.008356421,-0.13238531,0.0,0.0
-0.10038348,-0.06268811,0.008233603,0.0,0.0
-0.41638997,-0.13902524,-0.08845198,0.0,0.0
-0.039772045,-0.22412957,0.084866084,0.0,0.0
0.77303165,-0.14208363,-0.062702246,0.0,0.0
-0.64405257,0.049347166,-0.07737631,0.0,0.0
-0.8035505,0.019591685,-0.051604696,0.0,0.0
0.07577663,0.0759195,-0.15474387,0.0,0.0
0.15929995,-0.04823072,-0.053230662,0.0,0.0
-0.072320715,0.12352979,-0.06851976,0.0,0.0
0.39972007,-0.08990903,-0.11326276,0.0,0.0
-0.38794664,-0.06146693,-0.069580846,0.0,0.0
0.60194,0.32058424,-0.0609012,0.0,0.0
0.124824256,0.02538389,-0.12704343,0.0,0.0
0.47730377,0.16701883,-0.0999532,0.0,0.0
0.07998842,0.37389806,-0.121882476,0.0,0.0
-0.04395941,-0.1646715,0.09239228,0.0,0.0
0.30837783,0.1242631,-0.06582728,0.0,0.0
-0.12002906,0.09253122,-0.10385504,0.0,0.0
-0.8532114,0.06728228,-0.08956948,0.0,0.0
0.09345051,-0.2574334,0.16947776,0.0,0.0
0.67424494,0.15480551,-0.063107386,0.0,0.0
0.79595035,0.102244146,-0.0716786,0.0,0.0
0.34261066,0.06531613,-0.12633157,0.0,0.0
-0.53438985,-0.12353998,0.10790138,0.0,0.0
0.19327542,0.024325661,-0.17380899,0.0,0.0
0.19456361,-0.121221915,0.19376142,0.0,0.0
-0.2301837,-0.17830476,-0.029955428,0.0,0.0
0.27182773,-0.2247005,0.09184752,0.0,0.0
0.5369864,0.05667233,-0.12770434,0.0,0.0
-0.5597997,-0.20419675,-0.0763964,0.0,0.0
0.39998958,-0.13372885,0.10904601,0.0,0.0
-0.58958346,-0.19523574,0.19881926,0.0,0.0
-0.3995587,-0.05629358,0.069365084,0.0,0.0
0.44843203,-0.057598975,-0.06740521,0.0,0.0
-0.26643687,0.12551099,-0.061447553,0.0,0.0
0.58563685,0.17318954,-0.040631905,0.0,0.0
-0.15679257,-0.123499125,0.13705611,0.0,0.0
0.61688775,-0.05235847,-0.14608997,0.0,0.0
-0.4852309,-0.21275933,0.047845878,0.0,0.0
0.20489341,-0.13593128,0.20448709,0.0,0.0
-0.38239104,0.22362958,0.08592321,0.0,0.0
0.58586824,-0.021262554,0.001522709,0.0,0.0
-0.3652539,-0.1657393,0.06183227,0.0,0.0
-0.6893033,-0.16454974,-0.07081387,0.0,0.0
-0.43865564,-0.02009956,-0.042295177,0.0,0.0
0.27131215,-0.035641447,-0.031898282,0.0,0.0
-0.27834314,-0.06027932,-0.0600257,0.0,0.0
0.19769755,-0.04496269,0.43333638,0.0,0.0
-0.5962693,-0.06628126,-0.0005743326,0.0,0.0
0.34819445,0.13049935,-0.09433904,0.0,0.0
0.53184396,0.548946,0.08636888,0.0,0.0
0.70511925,-0.116598204,0.22163685,0.0,0.0
-0.2669895,-0.15114583,0.116803125,0.0,0.0
-0.044443734,-0.06902321,0.07047457,0.0,0.0
0.4101123,-0.1794982,0.06457135,0.0,0.0
0.26122478,-0.046107754,-0.16188079,0.0,0.0
0.021767585,0.13173759,-0.12845773,0.0,0.0
0.3036492,-0.12382119,0.0011264611,0.0,0.0
0.31686413,-0.08668699,-0.012737539,0.0,0.0
0.5319275,0.3593878,-0.10138736,0.0,0.0
-0.6104497,-0.10128081,-0.12057646,0.0,0.0
-0.41959226,-0.030628158,-0.07902419,0.0,0.0
0.33287925,-0.1801545,0.1475355,0.0,0.0
-0.79615563,-0.033941213,-0.10706031,0.0,0.0
0.24368718,0.058499876,-0.0512492,0.0,0.0
-0.06201996,-0.03677609,-0.028423252,0.0,0.0
0.24367547,-0.030979242,-0.0004893516,0.0,0.0
-0.34046635,-0.14566393,0.09475789,0.0,0.0
-0.29176566,-0.09800021,-0.08280587,0.0,0.0
0.010428645,-0.14804584,0.017726747,0.0,0.0
0.688901,-0.17968726,0.0038290897,0.0,0.0
0.05589346,-0.2006859,0.019074043,0.0,0.0
0.51731145,-0.10152324,0.08300437,0.0,0.0
-0.67533743,-0.2273618,-0.09982449,0.0,0.0
0.7207161,0.5364922,0.018320866,0.0,0.0
0.70199996,-0.13339186,-0.014020937,0.0,0.0
0.44142964,0.115445785,-0.123646244,0.0,0.0
-0.08827077,-0.007530458,0.033850934,0.0,0.0
-0.55774397,-0.19266076,0.18138772,0.0,0.0
-0.06891573,-0.22350381,0.14809941,0.0,0.0
-0.3773841,-0.23228823,-0.09980593,0.0,0.0
0.54728514,0.12252265,-0.06788917,0.0,0.0
0.33946592,-0.18155655,0.11891301,0.0,0.0
0.55433536,0.028422337,-0.12415619,0.0,0.0
-0.3303881,0.015265586,-0.21480781,0.0,0.0
-0.05406193,-0.16682135,0.17087987,0.0,0.0
-0.2127471,-0.04435366,-0.059165325,0.0,0.0
-0.08873462,-0.0043736696,-0.08156791,0.0,0.0
0.24222955,-0.20665206,0.13729349,0.0,0.0
0.42981148,0.31788805,-0.042200565,0.0,0.0
0.27224636,0.18036681,-0.11063674,0.0,0.0
-0.11553303,0.012657196,-0.059392653,0.0,0.0
0.12720935,-0.13635871,0.14811118,0.0,0.0
0.7915363,-0.051620986,-0.064111166,0.0,0.0
0.14985283,-0.091616146,-0.06016943,0.0,0.0
-0.42924723,0.14415382,-0.05613577,0.0,0.0
-0.5699847,0.04338768,-0.064610705,0.0,0.0
0.08329581,-0.22734392,-0.016278783,0.0,0.0
-0.30571434,0.02244139,-0.093828425,0.0,0.0
0.06745235,0.11026165,0.02908057,0.0,0.0
0.24110088,0.032072347,-0.06764968,0.0,0.0
0.7969003,0.063872114,-0.13746263,0.0,0.0
0.30289146,0.13744888,-0.06859356,0.0,0.0
-0.36777523,-0.011047895,-0.12844788,0.0,0.0
0.08572276,-0.10955993,0.16536045,0.0,0.0
-0.13954915,-0.057309903,0.055815198,0.0,0.0
-0.36126512,-0.10034186,0.2448264,0.0,0.0
0.3642221,-0.13976932,-0.012982893,0.0,0.0
-0.7283332,0.26247954,-0.09801115,0.0,0.0
-0.4324614,-0.21600994,0.14508371,0.0,0.0
0.41414288,0.19743672,-0.10327678,0.0,0.0
0.03836206,0.17431137,-0.142584,0.0,0.0
0.71298707,0.18675996,-0.1409158,0.0,0.0
-0.63222045,0.05053831,0.01696575,0.0,0.0
0.33753288,0.017090844,0.042416077,0.0,0.0
0.059083983,-0.16686846,0.03083853,0.0,0.0
0.3134385,0.35358533,-0.012256986,0.0,0.0
-0.085920595,0.08434664,-0.12322642,0.0,0.0
0.24679343,-0.0799552,-0.030822307,0.0,0.0
-0.13207518,-0.056938186,0.020842155,0.0,0.0
-0.28727597,-0.15189749,-0.0645023,0.0,0.0
0.25570604,0.06627013,-0.06838327,0.0,0.0
0.5244586,-0.23182039,0.012455644,0.0,0.0
-0.012324036,-0.23322834,-0.0862776,0.0,0.0
0.11607764,0.040818144,0.008613675,0.0,0.0
0.52148783,-0.0024045152,-0.17155343,0.0,0.0
-0.1764051,0.09852945,0.04601211,0.0,0.0
-0.17352143,-0.048398826,-0.015170672,0.0,0.0
0.11415665,-0.05448573,-0.07049848,0.0,0.0
0.17187479,-0.008384397,0.041140098,0.0,0.0
0.19449952,-0.03915735,0.04591572,0.0,0.0
0.22253515,0.0458693,-0.13583429,0.0,0.0
-0.2916487,-0.016986687,-0.048157353,0.0,0.0
-0.5327133,0.17962162,-0.11393309,0.0,0.0
0.17041299,-0.20305791,-0.09638998,0.0,0.0
-0.6547163,-0.06585136,0.042995546,0.0,0.0
-0.0893386,-0.17250256,0.13970132,0.0,0.0
0.91697043,0.34737623,-0.0069983257,0.0,0.0
-0.19736025,0.05017851,-0.03281235,0.0,0.0
0.25837672,-0.05130712,-0.06580378,0.0,0.0
0.58235884,0.022959776,-0.09286494,0.0,0.0
-0.36357388,0.14263776,-0.105584756,0.0,0.0
0.77057636,-0.03425937,-0.046738073,0.0,0.0
0.41263482,-0.23064847,-0.07290156,0.0,0.0
0.47991142,-0.059308596,0.123779565,0.0,0.0
0.14268366,-0.19087426,0.09823805,0.0,0.0
0.5235498,-0.17384826,0.2345781,0.0,0.0
0.0045957263,-0.18726492,-0.12280157,0.0,0.0
-0.38052484,-0.076323844,-0.10841022,0.0,0.0
0.19371423,-0.15593378,0.036714986,0.0,0.0
0.45397732,-0.07807106,0.11277356,0.0,0.0
0.17022419,0.017290423,0.021261336,0.0,0.0
-0.23003066,0.010959362,-0.032073807,0.0,0.0
0.042802118,-0.13321513,0.1983944,0.0,0.0
0.595341,-0.19510354,0.19592522,0.0,0.0
-0.06028966,0.039515052,-0.038318593,0.0,0.0
0.5429991,-0.111343406,-0.11516346,0.0,0.0
-0.027043397,0.015443574,-0.12495604,0.0,0.0
-0.58985126,-0.17602989,-0.079149775,0.0,0.0
-0.19010608,-0.058745135,0.04007947,0.0,0.0
0.3298953,-0.060344677,0.1411368,0.0,0.0
0.33616665,-0.17878614,0.27998412,0.0,0.0
-0.79773724,-0.234397,0.1617331,0.0,0.0
-0.32705766,-0.1270834,0.19974682,0.0,0.0
0.17388071,0.15173773,-0.14573973,0.0,0.0
-0.69591355,-0.097938955,-0.05630933,0.0,0.0
-0.09887095,-0.012365924,-0.024439719,0.0,0.0
-0.372143,0.06870325,0.014331842,0.0,0.0
-0.6201661,-0.28970024,-0.074329875,0.0,0.0
0.35319248,-0.06455219,0.07559799,0.0,0.0
-0.12758029,-0.19529986,0.22125347,0.0,0.0
-0.4277531,0.33614802,-0.09586452,0.0,0.0
0.06704991,-0.111435704,0.15111637,0.0,0.0
0.7241587,-0.16996011,0.17093837,0.0,0.0
-0.14975724,-0.17214863,0.32606044,0.0,0.0
0.8486604,-0.16332196,0.385575,0.0,0.0
0.11403087,-0.15146321,0.03770716,0.0,0.0
0.02486234,-0.16249683,0.011826261,0.0,0.0
-0.22125885,-0.19241759,0.040479172,0.0,0.0
0.08539453,-0.11507374,-0.090183586,0.0,0.0
0.6704215,-0.27636114,0.008264013,0.0,0.0
0.15403187,-0.11793361,0.16471696,0.0,0.0
0.0016566642,0.0133171575,-0.05093163,0.0,0.0
-0.012491189,0.23025522,-0.01918726,0.0,0.0
0.10742417,0.0367928,-0.054352056,0.0,0.0
0.24298391,-0.11129048,-0.039256547,0.0,0.0
0.27901673,0.036691524,0.050160356,0.0,0.0
-0.31219563,0.07544252,-0.094270535,0.0,0.0
0.56394506,0.11299614,-0.116651535,0.0,0.0
0.44511488,0.0873722,0.04392949,0.0,0.0
-0.06379574,-0.06366609,0.24376671,0.0,0.0
0.43134633,-0.27451476,-0.13888057,0.0,0.0
-0.53325284,-0.24652565,0.20172843,0.0,0.0
-0.4667289,-0.17597076,-0.10393137,0.0,0.0
-0.41918227,0.08878004,-0.015412802,0.0,0.0
0.7528943,-0.09273935,-0.06576412,0.0,0.0
0.4075717,-0.07836729,-0.028504645,0.0,0.0
0.14085019,0.00586623,-0.026692271,0.0,0.0
-0.45329022,-0.25019956,0.111610934,0.0,0.0
-0.65666276,-0.18022512,0.13414536,0.0,0.0
0.42200044,-0.24195728,-0.29218805,0.0,0.0
-0.30452338,-0.12890266,0.17121783,0.0,0.0
0.18377762,-0.08413355,0.17993811,0.0,0.0
0.071276926,0.09877645,-0.037916154,0.0,0.0
-0.15126549,-0.02024729,-0.17616794,0.0,0.0
-0.19510882,-0.21512786,0.1197802,0.0,0.0
-0.2018692,-0.19328946,0.22220317,0.0,0.0
0.77802825,-0.12679121,-0.0565023,0.0,0.0
-0.39285684,-0.17421508,-0.024404336,0.0,0.0
-0.8416553,-0.14238088,-0.0035117255,0.0,0.0
-0.47266468,-0.1260072,0.1558398,0.0,0.0
-0.47937393,-0.018749211,0.004531359,0.0,0.0
0.5082019,-0.24815,-0.07114434,0.0,0.0
-0.5337678,0.3364409,0.10473189,0.0,0.0
0.473385,0.0444148,-0.11822765,0.0,0.0
-0.5061079,-0.21579054,0.105969094,0.0,0.0
0.6668555,-0.15268978,0.049062066,0.0,0.0
-0.45081332,-0.07914522,0.074054465,0.0,0.0
-0.6348402,-0.011562637,-0.037520226,0.0,0.0
0.08415539,0.22315,-0.06745041,0.0,0.0
-0.5166916,-0.09260018,0.20549954,0.0,0.0
0.5063141,-0.19501649,0.07071301,0.0,0.0
0.75190914,-0.17970113,0.21332492,0.0,0.0
0.37802443,-0.028229313,-0.10118354,0.0,0.0
-0.23705114,-0.18435237,0.175015,0.0,0.0
0.56970155,-0.15021153,-0.08658519,0.0,0.0
-0.6466598,0.063326396,-0.028784132,0.0,0.0
-0.2763656,-0.22358358,0.028643047,0.0,0.0
-0.4790153,-0.07872029,-0.2885665,0.0,0.0
0.16445678,0.14301375,-0.1516887,0.0,0.0
0.49107766,-0.15469745,0.20560268,0.0,0.0
-0.29145047,0.2072904,-0.07493899,0.0,0.0
0.82322466,-0.010802324,-0.09387998,0.0,0.0
-0.15368493,0.18143067,-0.035865806,0.0,0.0
0.78281987,-0.03273896,0.0082544135,0.0,0.0
-0.8116553,0.18899992,-0.10717089,0.0,0.0
0.19207577,-0.0005137058,0.0045043225,0.0,0.0
-0.34506273,0.07064231,-0.005548341,0.0,0.0
0.22722222,-0.0853007,0.15298961,0.0,0.0
-0.77822524,-0.099138066,0.06309631,0.0,0.0
-0.11397596,-0.18645324,-0.049937386,0.0,0.0
-0.64135,0.07473318,-0.056270134,0.0,0.0
0.33840266,0.03262168,-0.13218361,0.0,0.0
-0.25925422,-0.006543722,0.07028434,0.0,0.0
-0.5932743,-0.15943739,-0.07360852,0.0,0.0
-0.08088901,-0.21585608,0.017416267,0.0,0.0
0.16960095,-0.067065895,0.0092616035,0.0,0.0
-0.50214624,0.24794859,-0.071669236,0.0,0.0
-0.027117493,0.22035137,-0.101767704,0.0,0.0
0.35558477,0.16069351,-0.099797025,0.0,0.0
0.28059223,-0.14800951,-0.042940237,0.0,0.0
0.4062349,-0.21145023,0.03207828,0.0,0.0
0.33490306,0.013958579,0.04354229,0.0,0.0
0.65303373,0.03116444,-0.041787587,0.0,0.0
0.36551252,-0.009830464,-0.052965276,0.0,0.0
0.8789198,0.18094407,-0.044486325,0.0,0.0
-0.3008909,-0.050013393,-0.009813387,0.0,0.0
0.10346263,-0.07609489,-0.028231226,0.0,0.0
-0.17865792,-0.008237599,-0.06650081,0.0,0.0
-0.12162605,0.10282206,-0.013077767,0.0,0.0
-0.3446591,-0.17331167,0.086765446,0.0,0.0
0.085492544,0.022546707,-0.13628763,0.0,0.0
-0.2186927,0.17824195,-0.08810599,0.0,0.0
0.27420717,-0.15701771,0.13294998,0.0,0.0
-0.192356,-0.04654798,0.04094754,0.0,0.0
-0.71855855,-0.15147254,-0.0926956,0.0,0.0
-0.59021837,0.0032899722,-0.073883675,0.0,0.0
0.5829325,0.44793448,-0.036039114,0.0,0.0
0.44473934,-0.11048065,0.14282455,0.0,0.0
0.28387368,0.053753316,-0.049661133,0.0,0.0
-0.46070686,0.19538066,0.08565971,0.0,0.0
0.12611397,-0.1446441,0.12695855,0.0,0.0
-0.5277368,0.018315328,-0.12944782,0.0,0.0
0.16460492,-0.033737414,0.075193934,0.0,0.0
-0.09601269,-0.12766331,0.070467606,0.0,0.0
0.16959046,-0.13788234,-0.013912342,0.0,0.0
0.24756557,-0.20051152,0.20261312,0.0,0.0
0.49233595,-0.055571843,0.023995217,0.0,0.0
0.31568807,0.23278323,-0.04777661,0.0,0.0
0.09097459,-0.079047434,0.10201491,0.0,0.0
-0.25998688,0.043321554,-0.10777707,0.0,0.0
-0.03230767,-0.17497416,0.18181954,0.0,0.0
0.79946786,-0.00061002944,-0.12551324,0.0,0.0
-0.636944,-0.15587127,0.10013758,0.0,0.0
0.29353574,-0.09335075,0.023706164,0.0,0.0
0.30505157,0.14373705,-0.057355825,0.0,0.0
0.04623318,-0.13715677,0.043009035,0.0,0.0
-0.12259402,-0.15614218,0.1008091,0.0,0.0
0.14057755,-0.026639935,-0.142582,0.0,0.0
-0.70661175,0.11427667,-0.093691505,0.0,0.0
0.12821203,0.044079095,-0.085776985,0.0,0.0
-0.2854969,-0.1661222,0.049134456,0.0,0.0
0.094741814,-0.07458897,0.019373631,0.0,0.0
0.056221236,0.16279829,-0.120498784,0.0,0.0
-0.59865826,-0.07237088,0.025805626,0.0,0.0
-0.29423803,-0.16890629,0.29831907,0.0,0.0
0.06217541,-0.044919275,-0.1289217,0.0,0.0
0.3094505,-0.11747892,-0.16234453,0.0,0.0
-0.3550403,0.12653987,-0.13906683,0.0,0.0
0.22344851,0.317989,-0.10680445,0.0,0.0
0.21505463,-0.022703128,0.028303595,0.0,0.0
0.63045573,-0.010306521,0.08567713,0.0,0.0
-0.16831993,0.10239936,-0.08074589,0.0,0.0
0.5079518,0.1520334,-0.11792524,0.0,0.0
0.017732773,-0.23216838,0.09302401,0.0,0.0
0.22043519,-0.024769139,-0.12894426,0.0,0.0
0.5272658,0.22918403,-0.040757265,0.0,0.0
-0.37990084,-0.112323605,0.08038429,0.0,0.0
0.5030243,-0.24282473,0.07478748,0.0,0.0
-0.16165225,0.1799713,-0.10035408,0.0,0.0
0.069425225,-0.13622797,-0.052858256,0.0,0.0
0.097076334,-0.00016939954,0.030324368,0.0,0.0
-0.15251403,0.23764233,-0.11592502,0.0,0.0
-0.32992914,0.37827012,-0.09774967,0.0,0.0
0.45252442,0.13889451,-0.09640391,0.0,0.0
0.6405908,0.11850482,-0.1586954,0.0,0.0
-0.09772564,-0.064154856,-0.041509684,0.0,0.0
0.59950686,-0.18643905,0.006458381,0.0,0.0
0.1297428,-0.06648906,-0.09843073,0.0,0.0
0.485306,0.016769467,-0.024611408,0.0,0.0
0.30112404,0.26611215,-0.032012843,0.0,0.0
-0.09128817,0.15556468,0.05040396,0.0,0.0
0.19520926,-0.023210607,-0.11116584,0.0,0.0
-0.25033322,-0.1760682,-0.054493234,0.0,0.0
0.22003719,-0.019411964,0.074650854,0.0,0.0
-0.39208323,-0.23875998,0.062039495,0.0,0.0
0.39888975,0.2773957,0.06590694,0.0,0.0
-0.76617575,0.19990538,-0.10788206,0.0,0.0
-0.30533633,0.38163906,-0.090097025,0.0,0.0
-0.00045231706,-0.15980852,-0.05166378,0.0,0.0
0.0934503,-0.11554128,-0.14086613,0.0,0.0
0.24554987,-0.04364453,-0.07020118,0.0,0.0
-0.38486013,-0.010353251,0.008932789,0.0,0.0
0.4076552,-0.22337897,0.04455474,0.0,0.0
-0.79623586,-0.19075951,-0.07698939,0.0,0.0
0.54500157,-0.18496534,0.10188661,0.0,0.0
-0.42973885,0.0035278185,-0.039793283,0.0,0.0
-0.45534423,-0.069473594,-0.06862638,0.0,0.0
0.07947174,-0.0744541,0.027704807,0.0,0.0
-0.037294853,0.07466094,-0.08284359,0.0,0.0
0.05584628,0.21982625,-0.0682004,0.0,0.0
0.32266438,-0.11479267,-0.093387164,0.0,0.0
0.47537166,-0.11098929,0.095002204,0.0,0.0
-0.3566816,-0.17726117,0.12414272,0.0,0.0
-0.65544176,-0.16004787,0.15427753,0.0,0.0
-0.5378369,0.44743314,-0.109742805,0.0,0.0
0.10765113,-0.15858129,0.21992679,0.0,0.0
-0.4007007,-0.004597321,0.018746547,0.0,0.0
-0.049106915,0.0005478292,0.0004002468,0.0,0.0
-0.63433254,-0.014716214,-0.13845833,0.0,0.0
-0.32830614,-0.11652974,0.03125862,0.0,0.0
-0.04298548,-0.10868457,0.19630414,0.0,0.0
0.86654997,0.017541159,-0.019732334,0.0,0.0
-0.17007343,-0.15832898,0.10671704,0.0,0.0
0.07918631,-0.19990315,0.2073659,0.0,0.0
-0.10854848,-0.054929316,0.10684033,0.0,0.0
0.23578668,0.041562755,-0.15770094,0.0,0.0
-0.16809735,0.043427777,-0.030744053,0.0,0.0
0.04375195,0.06559143,-0.035259597,0.0,0.0
-0.57806784,-0.12873606,-0.12569688,0.0,0.0
0.82344466,-0.019980859,-0.13361923,0.0,0.0
0.5662863,-0.049831428,-0.04087242,0.0,0.0
0.4644127,-0.18842238,0.20507199,0.0,0.0
-0.62713766,-0.1739162,-0.011757854,0.0,0.0
0.91782266,-0.04149611,-0.12894215,0.0,0.0
-0.3142192,-0.08677484,0.09107129,0.0,0.0
0.12142123,0.3159497,-0.06509319,0.0,0.0
-0.6359006,0.052537106,-0.08357075,0.0,0.0
0.23611522,-0.02961229,-0.0036671036,0.0,0.0
-0.038308483,-0.134094,0.029425874,0.0,0.0
0.11207973,-0.01266938,-0.03958873,0.0,0.0
0.5629144,0.106712066,-0.026767422,0.0,0.0
0.32260847,-0.021375682,0.14966498,0.0,0.0
0.048690032,0.030839806,-0.06734205,0.0,0.0
-0.26431164,-0.1518283,-0.08243218,0.0,0.0
-0.2828388,0.008837704,0.031516965,0.0,0.0
-0.69354534,0.060668144,-0.103807434,0.0,0.0
-0.048547227,-0.17227288,0.036657717,0.0,0.0
-0.13479164,0.07754275,-0.025980785,0.0,0.0
0.018482236,-0.15972261,0.2028976,0.0,0.0
0.018061513,-0.20708889,-0.09001306,0.0,0.0
0.03887945,-0.04191145,0.12682058,0.0,0.0
0.16913198,-0.19634089,0.20553656,0.0,0.0
0.2687333,-0.094737224,-0.070038006,0.0,0.0
-0.1109685,-0.06694025,0.20468067,0.0,0.0
-0.27814037,-0.08808429,0.10736501,0.0,0.0
0.29988694,-0.10315365,0.07896528,0.0,0.0
0.33244267,0.17204814,-0.048187274,0.0,0.0
0.271806,0.016935188,0.057644617,0.0,0.0
-0.49156588,-0.10002559,-0.055083312,0.0,0.0
-0.29215643,-0.03355157,0.0035525647,0.0,0.0
-0.58581054,-0.05507809,0.062090293,0.0,0.0
-0.035645835,0.026383204,0.056608032,0.0,0.0
-0.50229734,0.0023346732,-0.12656261,0.0,0.0
0.1269243,-0.013418886,0.03916067,0.0,0.0
-0.28121868,-0.016322631,0.077119984,0.0,0.0
0.38294926,0.026364394,-0.13715678,0.0,0.0
0.65968984,-0.0474348,-0.14691988,0.0,0.0
-0.64096147,-0.2638031,0.15994482,0.0,0.0
-0.4199148,0.27157456,-0.13849026,0.0,0.0
-0.1937391,-0.1683402,0.29803714,0.0,0.0
-0.45560768,-0.15760365,0.20033942,0.0,0.0
-0.15711293,-0.039298225,-0.03776722,0.0,0.0
-0.967892,-0.03311417,-0.07436693,0.0,0.0
-0.755431,-0.07092556,-0.018761389,0.0,0.0
-0.118319176,-0.2113248,0.23523957,0.0,0.0
0.50758165,-0.18926716,0.282171,0.0,0.0
0.8081401,0.056045555,-0.06763101,0.0,0.0
-0.5230846,0.03418635,-0.13088614,0.0,0.0
0.26798007,-0.118755974,0.12846032,0.0,0.0
0.4339294,-0.03973921,0.15638334,0.0,0.0
-0.16894081,0.20387268,-0.08852261,0.0,0.0
-0.2968747,-0.1708335,0.14350693,0.0,0.0
-0.5323224,-0.09589977,0.015648868,0.0,0.0
0.3781505,0.046103247,-0.075559504,0.0,0.0
0.37745953,0.05125527,-0.088078275,0.0,0.0
0.2022777,-0.14991249,0.25110865,0.0,0.0
-0.21320012,0.16110225,-0.0462541,0.0,0.0
0.7547379,-0.10083922,0.05971207,0.0,0.0
-0.13067363,-0.10142802,0.13873531,0.0,0.0
-0.5680383,-0.22952652,0.22760482,0.0,0.0
-0.17459549,-0.21230447,0.2668071,0.0,0.0
-0.20631988,0.030410852,-0.13860872,0.0,0.0
-0.76852214,-0.071701705,-0.08936699,0.0,0.0
-0.8183537,0.19010343,-0.14679326,0.0,0.0
0.15931556,-0.12991606,0.025768675,0.0,0.0
0.12790461,-0.011534952,0.07280059,0.0,0.0
-0.22377555,-0.08379932,-0.12911385,0.0,0.0
-0.51176924,0.2268968,-0.106061496,0.0,0.0
-0.7838065,-0.02087036,-0.098368965,0.0,0.0
0.24809316,-0.14171451,-0.07069674,0.0,0.0
-0.06483431,-0.16428821,0.17474166,0.0,0.0
-0.6979299,-0.12556912,0.06304529,0.0,0.0
0.90615493,0.07380072,-0.024121813,0.0,0.0
-0.57351434,0.19382538,-0.0015845075,0.0,0.0
-0.7891646,-0.16937135,-0.07151891,0.0,0.0
-0.27400005,0.0959205,-0.04293458,0.0,0.0
-0.67825574,-0.1499237,0.010370032,0.0,0.0
0.5698224,0.13822271,-0.035945572,0.0,0.0
0.37452134,-0.2019165,0.21779507,0.0,0.0
0.22347765,-0.080277674,0.031146998,0.0,0.0
0.5065062,-0.049787544,0.08345818,0.0,0.0
0.17509803,-0.067260176,0.008551526,0.0,0.0
0.014408887,-0.25775972,0.24877031,0.0,0.0
0.8580659,-0.21205184,0.07380505,0.0,0.0
0.5287173,-0.0627398,0.016796071,0.0,0.0
0.5608988,-0.03706947,-0.040402938,0.0,0.0
-0.5338735,-0.19021995,0.17743781,0.0,0.0
0.50437564,-0.10534617,0.17642318,0.0,0.0
-0.45070165,-0.12550634,0.09573178,0.0,0.0
0.023176959,-0.16904086,-0.03568252,0.0,0.0
0.4916693,0.023632232,-0.15485635,0.0,0.0
-0.12712497,-0.32701072,0.08399055,0.0,0.0
0.05118229,-0.22888231,-0.091342695,0.0,0.0
0.81404155,0.31270623,-0.05252406,0.0,0.0
0.54716206,0.052105606,-0.026580866,0.0,0.0
-0.38555795,0.07921055,-0.019660525,0.0,0.0
0.020652223,-0.14452277,0.18306877,0.0,0.0
0.30775666,-0.048110247,0.017860532,0.0,0.0
0.1888088,-0.10535856,0.11798261,0.0,0.0
-0.11444503,0.026654603,-0.0653658,0.0,0.0
0.61710674,0.07481761,-0.21867688,0.0,0.0
0.023142127,-0.01364016,-0.04824774,0.0,0.0
-0.4233622,-0.003942285,-0.006975513,0.0,0.0
-0.5098336,0.071854234,0.025538187,0.0,0.0
0.2747786,0.4065913,-0.069706015,0.0,0.0
-0.353258,0.068478525,0.0094308965,0.0,0.0
0.13670932,-0.00417134,0.0073957215,0.0,0.0
-0.24332333,-0.16749287,0.060051784,0.0,0.0
-0.6595973,-0.16312535,0.23102716,0.0,0.0
0.6727974,-0.056997176,-0.08103937,0.0,0.0
-0.19244663,-0.16194649,-0.09321031,0.0,0.0
-0.47669736,-0.031754818,-0.023260571,0.0,0.0
0.42453507,-0.13068888,0.16027921,0.0,0.0
0.5167254,-0.09969963,0.029329823,0.0,0.0
-0.45298097,-0.19128816,0.032429162,0.0,0.0
-0.2706173,0.022628501,-0.149827,0.0,0.0
0.02796144,0.11224726,-0.036857437,0.0,0.0
-0.26415595,0.08561582,-0.105537295,0.0,0.0
-0.60163283,0.161263,-0.10835099,0.0,0.0
-0.36092538,-0.06664618,0.014434624,0.0,0.0
0.21454321,-0.09669128,0.049787335,0.0,0.0
-0.49231398,-0.17768641,0.16367471,0.0,0.0
0.23451257,-0.37172487,0.14279237,0.0,0.0
-0.11493003,-0.1796236,-0.027592458,0.0,0.0
0.6346447,-0.0979255,-0.060289264,0.0,0.0
0.13404435,-0.037790786,0.12500405,0.0,0.0
0.48851132,-0.16300419,0.15694764,0.0,0.0
-0.0771887,-0.044017565,-0.015919155,0.0,0.0
-0.26074946,0.22115374,-0.06538787,0.0,0.0
-0.3908728,-0.113131404,0.036217645,0.0,0.0
-0.32183516,-0.15909357,0.25323355,0.0,0.0
0.58965325,0.113962606,-0.09778876,0.0,0.0
0.50181526,-0.14021434,0.11095686,0.0,0.0
0.12027428,-0.23940048,0.12177154,0.0,0.0
0.098806635,-0.089699395,-0.21164961,0.0,0.0
-0.105463535,-0.20939831,0.09607338,0.0,0.0
0.055601668,-0.035952166,-0.0032829843,0.0,0.0
-0.8052182,-0.042779118,-0.039093006,0.0,0.0
-0.4016526,0.09865867,-0.08832206,0.0,0.0
-0.21617419,-0.07362855,-0.13983466,0.0,0.0
0.10086901,0.05817822,-0.07124222,0.0,0.0
0.45380333,-0.14619951,0.23615058,0.0,0.0
0.23995319,0.048846047,-0.0328326,0.0,0.0
-0.17601319,0.17030117,-0.08546153,0.0,0.0
0.62668556,-0.2028529,0.2726516,0.0,0.0
-0.18935478,-0.0052220235,-0.032113194,0.0,0.0
-0.9003193,0.18456216,-0.054278463,0.0,0.0
0.18557107,-0.08858229,0.0662522,0.0,0.0
0.026623325,-0.18727158,0.1690013,0.0,0.0
0.38394272,-0.052675232,-0.106497705,0.0,0.0
-0.11176882,0.07771978,-0.08618751,0.0,0.0
0.34305537,-0.1437201,-0.030541962,0.0,0.0
0.4258152,-0.009353383,-0.046101492,0.0,0.0
0.18866798,0.0274878,-0.11557913,0.0,0.0
-0.7938956,0.13981104,-0.04627261,0.0,0.0
0.07522466,-0.030498927,-0.012987013,0.0,0.0
0.036320876,0.32097268,-0.0013075834,0.0,0.0
-0.5340546,-0.16844574,0.21455398,0.0,0.0
-0.67292607,-0.15625043,0.13405661,0.0,0.0
0.40878245,0.14982046,-0.13288075,0.0,0.0
0.32513088,0.065625146,-0.11794287,0.0,0.0
-0.35734406,-0.14590394,-0.075227104,0.0,0.0
0.03301057,-0.22558078,0.09586553,0.0,0.0
-0.20253496,-0.035188332,0.109551765,0.0,0.0
0.49023214,-0.10409923,-0.014735112,0.0,0.0
-0.24875145,-0.052203722,-0.0053980416,0.0,0.0
0.19503365,-0.051314507,-0.14794637,0.0,0.0
0.5760422,-0.21078283,0.1298096,0.0,0.0
-0.08704514,-0.17925945,0.083357796,0.0,0.0
-0.670624,-0.20138182,0.04371572,0.0,0.0
-0.35411575,0.090200745,-0.15686119,0.0,0.0
-0.45193863,-0.024251321,0.029728835,0.0,0.0
-0.52024484,-0.05131548,-0.12599729,0.0,0.0
0.094998516,0.13971731,-0.13492046,0.0,0.0
-0.42276695,0.16501163,-0.06799309,0.0,0.0
-0.76218355,-0.009764165,-0.110837564,0.0,0.0
0.0021873096,-0.21465108,0.22706753,0.0,0.0
-0.56363446,-0.010728845,0.011969587,0.0,0.0
0.38454247,-0.20567948,0.13552605,0.0,0.0
0.2737729,0.20691073,-0.07911331,0.0,0.0
0.51528907,-0.055988174,-0.12512633,0.0,0.0
0.22589725,0.120139346,-0.13220824,0.0,0.0
0.47040892,0.49115506,0.07323087,0.0,0.0
0.742779,-0.08766002,0.07313615,0.0,0.0
-0.32590082,-0.1606685,0.11077083,0.0,0.0
0.67913914,0.04230796,-0.1323702,0.0,0.0
-0.70288527,-0.039428625,-0.12032273,0.0,0.0
-0.021604998,0.15565506,-0.14983329,0.0,0.0
-0.7978897,0.05531091,-0.14898673,0.0,0.0
0.35457075,0.0781661,-0.07990081,0.0,0.0
0.31459436,-0.13450612,-0.16871628,0.0,0.0
-0.22954778,-0.18026528,0.2722079,0.0,0.0
-0.3379294,0.020576159,-0.019000996,0.0,0.0
-0.08587736,-0.13489684,-0.04950725,0.0,0.0
-0.73221016,0.08464831,-0.08817785,0.0,0.0
0.3969836,-0.03151838,0.18603899,0.0,0.0
0.3483574,0.2072347,-0.0848552,0.0,0.0
-0.43100405,-0.032564078,0.08861873,0.0,0.0
0.51695114,-0.021527825,-0.155263,0.0,0.0
0.5456072,-0.13241552,-0.14100242,0.0,0.0
-0.5806954,-0.03601245,-0.15383148,0.0,0.0
0.766737,-0.17740235,-0.10358047,0.0,0.0
0.31107092,-0.22015998,-0.0004947753,0.0,0.0
0.43815756,-0.19675843,0.16279633,0.0,0.0
-0.089144774,-0.21254626,0.19269723,0.0,0.0
-0.13669172,-0.0483322,-0.08567321,0.0,0.0
0.26516828,-0.123490326,0.15362406,0.0,0.0
0.57378143,-0.12786148,-0.08256645,0.0,0.0
0.28093565,-0.16621844,0.05156783,0.0,0.0
-0.6668609,0.05174385,-0.112948194,0.0,0.0
0.6414448,-0.2109878,0.15344784,0.0,0.0
0.07187566,0.097813174,-0.07268935,0.0,0.0
-0.5936883,0.07716241,-0.10780493,0.0,0.0
0.6023736,-0.06882054,-0.120497994,0.0,0.0
0.077476665,-0.04083344,0.08749322,0.0,0.0
-0.2510616,-0.16035694,0.009876745,0.0,0.0
0.36086413,-0.10987057,-0.21275182,0.0,0.0
-0.6311232,-0.03675545,-0.0011232201,0.0,0.0
0.9736218,-0.17711423,-0.12447273,0.0,0.0
0.08238879,-0.10685845,0.19034736,0.0,0.0
0.22268341,-0.18504404,0.20419435,0.0,0.0
0.5169953,-0.20018694,0.2284101,0.0,0.0
-0.5538523,0.048715778,-0.14238603,0.0,0.0
-0.7434373,-0.117124304,-0.053978026,0.0,0.0
-0.4597148,0.29777694,0.021385185,0.0,0.0
-0.15239543,-0.15530303,0.19554143,0.0,0.0
-0.3717399,-0.015307817,-0.08778115,0.0,0.0
-0.55842704,0.020901768,-0.14050226,0.0,0.0
0.41408288,-0.25558463,0.18075328,0.0,0.0
0.6366,-0.20140466,-0.02986059,0.0,0.0
0.6934605,-0.0064826747,-0.0451497,0.0,0.0
-0.8730056,-0.08896811,-0.054834522,0.0,0.0
-0.05301623,0.03325526,-0.10212977,0.0,0.0
-0.06582013,-0.2536751,-0.0031410777,0.0,0.0
0.039691392,-0.15493234,0.07697644,0.0,0.0
-0.6248357,-0.05933722,0.11169981,0.0,0.0
0.3126224,-0.11871186,-0.008724399,0.0,0.0
-0.15532131,-0.09994345,0.05964149,0.0,0.0
-0.7671295,0.04439748,0.0011850512,0.0,0.0
-0.29195535,-0.31303436,0.19626972,0.0,0.0
0.14734751,0.057990022,-0.045446027,0.0,0.0
-0.5818492,-0.0009123317,-0.07046936,0.0,0.0
0.10887417,0.01097936,0.03581005,0.0,0.0
0.7045501,-0.060928855,-0.08290923,0.0,0.0
-0.2014766,-0.20550254,0.006689527,0.0,0.0
-0.72077113,-0.06799893,0.06908104,0.0,0.0
0.61607677,0.4009733,0.054356962,0.0,0.0
-0.32866925,0.15994483,-0.06573283,0.0,0.0
-0.93099296,0.065928824,-0.11924887,0.0,0.0
0.11140094,-0.13426903,0.12614039,0.0,0.0
-0.7549876,-0.057061095,0.026933689,0.0,0.0
0.67850786,-0.09619494,-0.09528059,0.0,0.0
-0.719064,-0.17102706,-0.035154734,0.0,0.0
0.61933976,-0.24672435,0.12648594,0.0,0.0
-0.7102071,-0.25258166,-0.021697596,0.0,0.0
-0.32646883,-0.023367962,0.016851015,0.0,0.0
-0.025133185,0.08185905,0.03048117,0.0,0.0
-0.27009112,-0.14404525,0.16525555,0.0,0.0
0.14865935,0.026122075,-0.08643856,0.0,0.0
-0.008772659,-0.18165195,0.21059546,0.0,0.0
0.031070573,-0.017789079,-0.11151197,0.0,0.0
-0.38464755,0.25903448,-0.16465051,0.0,0.0
0.3874182,-0.0986812,0.07475542,0.0,0.0
0.4515263,-0.15042984,-0.09998833,0.0,0.0
-0.5097953,0.16745509,-0.08922242,0.0,0.0
-0.54406357,-0.06965722,0.12643349,0.0,0.0
-0.030206183,0.09837324,-0.03904711,0.0,0.0
0.53214365,-0.2148212,0.11575387,0.0,0.0
-0.19439258,0.039166342,-0.0872801,0.0,0.0
0.71538365,0.13200709,-0.15241048,0.0,0.0
0.66241604,-0.2122041,0.1471405,0.0,0.0
-0.030773738,-0.1857965,0.073480785,0.0,0.0
-0.60252297,0.11990646,-0.13265058,0.0,0.0
0.6335928,-0.16731618,0.16657688,0.0,0.0
0.68537545,-0.050062887,-0.08022375,0.0,0.0
0.60681987,-0.19262017,0.21332625,0.0,0.0
0.3006985,0.19216959,-0.06818261,0.0,0.0
0.9435853,-0.011135747,-0.103473574,0.0,0.0
0.56189287,-0.11563825,0.17830536,0.0,0.0
0.36890557,-0.079841316,0.18315585,0.0,0.0
0.44534442,0.40676984,0.082208104,0.0,0.0
-0.23586118,0.3096196,-0.020580929,0.0,0.0
0.045817345,0.27424318,-0.13099088,0.0,0.0
-0.17926307,-0.03103194,-0.07086015,0.0,0.0
-0.18466863,0.109528586,-0.20964327,0.0,0.0
-0.13202985,-0.54367995,0.2879627,0.0,0.0
0.27644908,-0.16582812,-0.09760353,0.0,0.0
0.7415514,-0.031047069,-0.029353948,0.0,0.0
0.3083123,0.090047605,-0.17031151,0.0,0.0
-0.81239,-0.045526996,0.04251994,0.0,0.0
-0.35687944,0.040272735,0.007443575,0.0,0.0
0.6621845,0.097446874,-0.11764169,0.0,0.0
0.38890177,-0.05945079,-0.12976202,0.0,0.0
0.56153816,-0.09761515,0.103745535,0.0,0.0
0.032396525,-0.2998576,0.26403916,0.0,0.0
-0.09614658,0.08813354,-0.02164197,0.0,0.0
-0.36587897,-0.13912015,0.16338617,0.0,0.0
1.1092143,0.08905967,-0.01239442,0.0,0.0
-0.5674976,-0.14545724,0.11581326,0.0,0.0
-0.20115274,-0.018810691,0.05011557,0.0,0.0
0.04863619,0.12792315,-0.142721,0.0,0.0
-0.1569988,-0.07947578,-0.0068845935,0.0,0.0
-0.69644946,-0.156959,0.05209973,0.0,0.0
0.45502627,-0.16694875,-0.102465436,0.0,0.0
0.17721853,-0.25558186,0.3041192,0.0,0.0
0.35545155,-0.051456142,0.026706556,0.0,0.0
-0.8053523,0.16459854,-0.12833025,0.0,0.0
0.09553424,-0.13673075,0.023190822,0.0,0.0
0.19865647,0.0057710297,-0.1268869,0.0,0.0
0.42738417,0.32352954,-0.07795793,0.0,0.0
-0.19391614,-0.21611117,0.108323276,0.0,0.0
-0.29949078,-0.0500682,0.25388208,0.0,0.0
-0.05332529,-0.09350127,0.20607936,0.0,0.0
-0.038690787,-0.19851299,-0.07302231,0.0,0.0
0.08629289,-0.094319515,-0.034276184,0.0,0.0
0.33801845,-0.00014989496,-0.100906044,0.0,0.0
0.8638006,-0.2739768,0.07235501,0.0,0.0
0.7094747,-0.12568508,-0.089994445,0.0,0.0
0.60093325,0.026992735,0.10504949,0.0,0.0
-0.27704307,0.19690388,-0.12391825,0.0,0.0
-0.0068170326,-0.10589148,0.025613941,0.0,0.0
0.18602546,0.13833241,0.0033940533,0.0,0.0
0.7573758,-0.046725795,-0.014742256,0.0,0.0
-0.30465633,0.04835438,0.01338044,0.0,0.0
0.6608013,0.07952876,-0.14658621,0.0,0.0
0.056883298,-0.21101819,0.03898111,0.0,0.0
0.5394948,0.006430757,0.058679473,0.0,0.0
-0.6157796,-0.07519194,0.009076921,0.0,0.0
0.26665384,-0.15026253,0.06532678,0.0,0.0
-0.35879284,0.06342562,0.1144335,0.0,0.0
-0.17688328,-0.15860848,0.08958866,0.0,0.0
0.005452032,-0.10015401,-0.16527846,0.0,0.0
-0.39679313,0.15838625,-0.04416788,0.0,0.0
0.53216594,-0.23884852,0.03746093,0.0,0.0
-0.652906,-0.25502905,-0.018969191,0.0,0.0
-0.6393613,-0.02180251,0.02408375,0.0,0.0
0.21124458,-0.13479896,0.19549835,0.0,0.0
0.6003599,-0.18150055,0.22109757,0.0,0.0
-0.73596066,0.18556574,-0.0008313991,0.0,0.0
-0.23245578,-0.18424653,-0.06476606,0.0,0.0
-0.43253526,-0.12901278,0.09509498,0.0,0.0
-0.77054286,0.03884454,-0.06657928,0.0,0.0
0.44796064,-0.21592975,0.1555623,0.0,0.0
-0.055110384,-0.089062504,0.008486451,0.0,0.0
-0.257667,0.066494144,-0.07978961,0.0,0.0
0.1769239,-0.050523385,0.15745977,0.0,0.0
-0.7303677,-0.2223282,0.0054742023,0.0,0.0
0.37782285,-0.108324826,-0.0038186032,0.0,0.0
0.46705833,0.12976365,-0.040973604,0.0,0.0
0.1933832,-0.20756763,0.23511314,0.0,0.0
0.728477,-0.16729967,0.007193813,0.0,0.0
-0.11313462,-0.211673,0.049126156,0.0,0.0
0.7795663,0.13046932,-0.08181616,0.0,0.0
-0.16521505,-0.106683165,-0.016769344,0.0,0.0
0.14362873,-0.09855727,0.2184949,0.0,0.0
-0.53873014,-0.20553991,0.08164063,0.0,0.0
-0.4610733,-0.19689289,-0.08003037,0.0,0.0
-0.96184474,-0.04603917,-0.106920086,0.0,0.0
0.20013264,0.33343515,-0.05209011,0.0,0.0
0.4313137,-0.053737067,-0.17776924,0.0,0.0
0.78347963,0.17025132,0.08349059,0.0,0.0
0.6171457,-0.24670115,0.04185228,0.0,0.0
-0.61732066,-0.10615588,-0.1553931,0.0,0.0
-0.86839086,0.009582481,-0.10814216,0.0,0.0
-0.6119147,-0.17969155,0.17577736,0.0,0.0
0.46134865,-0.05344217,-0.10095875,0.0,0.0
-0.20195845,-0.19639061,0.088440984,0.0,0.0
-0.062948905,-0.0043233023,-0.036697682,0.0,0.0
-0.10022676,-0.1924211,0.0754567,0.0,0.0
-0.71969,-0.1361294,-0.029183676,0.0,0.0
-0.4314229,0.24671195,-0.07212257,0.0,0.0
0.5002558,-0.16355073,-0.07407941,0.0,0.0
0.6405758,0.3501827,0.012978212,0.0,0.0
0.3724555,0.34806535,-0.09136865,0.0,0.0
0.5195343,0.012161138,-0.14111117,0.0,0.0
0.41352323,-0.12975852,-0.14560658,0.0,0.0
0.09859656,-0.16868395,-0.09216859,0.0,0.0
0.19278872,0.024624186,-0.15578505,0.0,0.0
0.00096210005,0.036286123,0.045072995,0.0,0.0
0.48300117,0.10686632,-0.14379969,0.0,0.0
-0.75383806,0.19038066,-0.09885629,0.0,0.0
-0.03218593,-0.14969477,0.08591259,0.0,0.0
-0.6317449,-0.33089197,0.115856074,0.0,0.0
0.4431466,0.31785795,-0.10254377,0.0,0.0
0.9799716,-0.114315905,-0.0697888,0.0,0.0
0.446405,-0.255061,-0.17287405,0.0,0.0
0.062277526,0.02878309,-0.09939361,0.0,0.0
-0.38183394,-0.13134259,-0.12892166,0.0,0.0
0.49071792,-0.09966981,0.1963359,0.0,0.0
0.38068515,-0.068465546,0.0997164,0.0,0.0
-0.2936284,-0.2965257,0.11660757,0.0,0.0
0.7274019,0.24872684,-0.03039426,0.0,0.0
-0.5272207,0.18266158,0.24689713,0.0,0.0
0.7072396,0.08892785,0.040793616,0.0,0.0
0.043683365,-0.09752448,0.10863271,0.0,0.0
0.28221133,-0.08930801,-0.15851592,0.0,0.0
0.71514356,-0.10188719,0.12000762,0.0,0.0
-0.104932405,0.045576002,0.13985597,0.0,0.0
-0.057013083,-0.005287024,-0.037478738,0.0,0.0
0.73419744,-0.04536238,-0.028633153,0.0,0.0
0.31214824,-0.14419472,0.19642024,0.0,0.0
0.16477677,-0.022225894,0.015535556,0.0,0.0
-0.2542195,-0.12897605,0.12346395,0.0,0.0
-0.34743884,-0.12691103,0.17741,0.0,0.0
-0.30778897,0.08658902,0.109611794,0.0,0.0
0.007293456,-0.006404704,-0.025906583,0.0,0.0
0.5159382,-0.042835403,-0.099222,0.0,0.0
0.2269243,0.025373168,-0.06879484,0.0,0.0
0.289437,0.009771372,-0.108882256,0.0,0.0
-0.71849376,-0.13327087,-0.023280438,0.0,0.0
0.3473096,-0.041034903,-0.06761242,0.0,0.0
0.29092786,-0.08601024,-0.14735442,0.0,0.0
-0.22524011,-0.12098263,0.20823611,0.0,0.0
0.11969705,-0.05434263,0.16144256,0.0,0.0
-0.2031395,0.073939554,-0.06264691,0.0,0.0
0.38671163,0.40955955,0.041046385,0.0,0.0
0.07149882,-0.18985118,-0.07951223,0.0,0.0
0.08285529,0.01600981,0.26647875,0.0,0.0
0.4324384,-0.24390322,0.28526723,0.0,0.0
-0.0716175,-0.101363465,0.10326107,0.0,0.0
-0.04318897,-0.24591294,0.0020572534,0.0,0.0
0.3626785,0.0025779689,0.014943821,0.0,0.0
-0.37770388,0.15980984,-0.010482318,0.0,0.0
-0.3200478,-0.09605447,0.012356223,0.0,0.0
-1.0399652,0.25117323,-0.15097062,0.0,0.0
-0.37077677,-0.17092723,0.18025054,0.0,0.0
-0.074735716,-0.09335984,0.08401598,0.0,0.0
-0.71025634,-0.044749778,-0.12786888,0.0,0.0
-0.44059077,0.05320288,-0.12314431,0.0,0.0
0.18505123,0.15256795,0.018533252,0.0,0.0
0.24604946,-0.19025567,0.14356558,0.0,0.0
0.16972013,-0.1092533,0.09970194,0.0,0.0
0.44151235,-0.16386797,0.13210995,0.0,0.0
-0.5062212,0.03643685,0.07601324,0.0,0.0
0.3748685,0.3675337,-0.121406294,0.0,0.0
-0.010450506,0.18207759,-0.11769869,0.0,0.0
