x,y,z,f,scl1
-0.06359194,0.0864492,-0.02428323,0.0,0.0
-0.16593418,-0.052109346,-0.15384044,0.0,0.0
-0.24187677,0.04999356,-0.115131706,0.0,0.0
0.10983018,-0.22062671,0.02562336,0.0,0.0
0.03877521,-0.03342626,0.10474201,0.0,0.0
-0.6785087,-0.09615642,-0.017453073,0.0,0.0
0.07314687,0.086810105,-0.042335995,0.0,0.0
0.039820183,0.0027415687,-0.13886276,0.0,0.0
-0.18402877,-0.17809513,0.2542783,0.0,0.0
-0.31395382,0.15391786,-0.12535308,0.0,0.0
-0.7373757,-0.19183926,-0.017715286,0.0,0.0
0.16729367,0.075939216,-0.19050738,0.0,0.0
0.23991403,-0.08137697,-0.037111852,0.0,0.0
0.63378054,-0.20742981,-0.027937902,0.0,0.0
-0.4954387,-0.2539618,0.07961733,0.0,0.0
-0.8259084,0.020104915,-0.10592175,0.0,0.0
0.32622764,0.023705935,0.064184025,0.0,0.0
0.07302284,0.2624861,0.12544307,0.0,0.0
0.34124386,0.04477004,-0.13175625,0.0,0.0
-0.72679275,-0.2441614,-0.103223816,0.0,0.0
-0.48526084,0.29177573,-0.018177737,0.0,0.0
0.6638054,0.023142818,-0.07750206,0.0,0.0
-0.25069186,-0.09386161,0.11941087,0.0,0.0
-0.37684405,0.5868001,-0.09251476,0.0,0.0
-0.88252217,-0.002883421,-0.061851528,0.0,0.0
0.22871584,0.030941697,-0.15495647,0.0,0.0
0.41950876,0.02940446,-0.102550425,0.0,0.0
0.4196787,-0.005463184,0.016269833,0.0,0.0
0.6216683,-0.18030795,0.19193178,0.0,0.0
-0.009006327,-0.21062584,0.07450383,0.0,0.0
0.19844162,-0.17151724,-0.010886809,0.0,0.0
0.14261843,0.06708913,-0.15108551,0.0,0.0
0.66169983,-0.05457631,0.011066536,0.0,0.0
0.3895429,-0.010420907,-0.12814413,0.0,0.0
-0.25921473,-0.11932913,0.17133918,0.0,0.0
0.45427215,0.26359943,-0.016006678,0.0,0.0
0.15771605,-0.14388835,0.02852771,0.0,0.0
0.6851028,0.017728785,-0.017572261,0.0,0.0
0.34538528,-0.03452825,0.012649519,0.0,0.0
-0.8030536,-0.040473983,-0.0089191785,0.0,0.0
0.31119198,0.21600832,0.014324324,0.0,0.0
0.52050096,0.16681737,0.0730606,0.0,0.0
-0.4022107,0.09363149,-0.07896138,0.0,0.0
0.42052013,0.045565818,-0.040875703,0.0,0.0
0.6187979,0.11447049,0.18542895,0.0,0.0
0.5460707,-0.118400946,0.23532616,0.0,0.0
-0.24403198,0.002400168,-0.15252335,0.0,0.0
-0.48564607,0.03704383,-0.073524445,0.0,0.0
-0.44680843,-0.08667201,0.008741502,0.0,0.0
0.5876445,-0.30186105,0.20708099,0.0,0.0
-0.12931623,0.034057032,0.040954065,0.0,0.0
-0.6968802,-0.1303229,0.10872335,0.0,0.0
0.2737916,-0.17652372,0.09929879,0.0,0.0
-0.06704788,0.047446866,-0.06824878,0.0,0.0
0.01028185,-0.1888779,0.03642761,0.0,0.0
-0.5634262,-0.070623696,0.051195063,0.0,0.0
0.6195779,0.25722668,-0.0925633,0.0,0.0
-0.03154917,0.10294172,-0.100632966,0.0,0.0
-0.36996078,-0.033752285,-0.084022336,0.0,0.0
-0.042077504,-0.061160687,0.047649447,0.0,0.0
-0.0038527902,0.027242232,-0.076388605,0.0,0.0
-0.0007911465,0.10963552,0.030661784,0.0,0.0
-0.2378283,-0.016621932,-0.057644445,0.0,0.0
-0.23300862,-0.15489739,-0.024200462,0.0,0.0
-0.28491914,-0.002464886,0.072710484,0.0,0.0
0.22641762,0.027092677,-0.03431482,0.0,0.0
0.803573,0.13637485,0.23426451,0.0,0.0
0.12327837,-0.11912013,0.05149701,0.0,0.0
0.003564806,-0.032062706,-0.12131754,0.0,0.0
-0.8903665,-0.05800377,-0.0854234,0.0,0.0
0.08571435,-0.17013738,0.013116288,0.0,0.0
0.77320665,0.09333912,-0.09782479,0.0,0.0
-0.60833406,-0.118421175,0.091460384,0.0,0.0
-0.7114226,-0.098854996,-0.060173273,0.0,0.0
-1.1126875,0.031180505,-0.11156867,0.0,0.0
-0.44094506,-0.25003505,0.32176337,0.0,0.0
-0.2359583,-0.16008878,0.298895,0.0,0.0
-0.054663338,0.010976297,-0.12086005,0.0,0.0
-0.0030615756,-0.25504377,0.23501767,0.0,0.0
0.6452367,0.12180055,0.111829944,0.0,0.0
0.7067231,-0.17210375,0.12365013,0.0,0.0
-0.47797993,-0.07170427,0.13175324,0.0,0.0
-0.18278609,-0.17406034,0.0670484,0.0,0.0
-0.23877825,-0.18036737,0.076620616,0.0,0.0
0.10825938,0.1318948,-0.11552679,0.0,0.0
0.025883842,-0.19226934,0.120824315,0.0,0.0
-0.2112505,-0.049881525,0.022199446,0.0,0.0
0.22638553,-0.118375756,0.2989754,0.0,0.0
-0.22214483,0.021930609,-0.09632344,0.0,0.0
-0.44658124,0.066354506,-0.070508055,0.0,0.0
-0.6778796,0.010353405,-0.030826319,0.0,0.0
-0.78743064,-0.13228375,-0.15859993,0.0,0.0
0.5967138,0.023206513,-0.079445824,0.0,0.0
0.058211997,-0.16450742,0.037800323,0.0,0.0
0.2785535,0.18064083,-0.12714233,0.0,0.0
0.24378741,0.03053183,-0.16876727,0.0,0.0
0.4899096,0.04369034,0.033888698,0.0,0.0
0.28060624,-0.09625975,-0.116780624,0.0,0.0
-0.2476754,-0.037906192,0.09469226,0.0,0.0
-0.30741614,-0.25934952,-0.011255145,0.0,0.0
0.20454684,0.046854727,-0.13645816,0.0,0.0
0.10718933,0.10204722,-0.1116982,0.0,0.0
0.54233766,0.18307224,-0.042925224,0.0,0.0
0.10246461,-0.09574127,0.17720298,0.0,0.0
0.22470458,-0.2809164,0.20488267,0.0,0.0
-0.107880116,0.032099795,0.0036209598,0.0,0.0
0.5842145,-0.16339807,0.26906195,0.0,0.0
0.080708385,0.089963175,-0.021275489,0.0,0.0
-0.25565106,0.36845908,-0.00027978607,0.0,0.0
0.15773177,-0.16572429,-0.040386606,0.0,0.0
0.8615175,-0.032336384,-0.015021745,0.0,0.0
-0.07238533,-0.18822104,0.15636232,0.0,0.0
-0.26566356,0.2690926,-0.08074055,0.0,0.0
0.21253894,-0.21383104,0.0010248066,0.0,0.0
0.23021317,0.1709104,-0.15935642,0.0,0.0
-0.51249146,-0.203412,-0.056228302,0.0,0.0
0.47279388,-0.08514989,0.17979515,0.0,0.0
0.10249513,-0.15330003,0.1473445,0.0,0.0
0.3142204,-0.1925114,-0.06259563,0.0,0.0
-0.44957483,-0.20218034,0.22665028,0.0,0.0
-0.49362585,-0.068796396,0.04273536,0.0,0.0
-0.08194929,0.02180103,-0.0514123,0.0,0.0
0.46265343,0.30486012,-0.086197816,0.0,0.0
0.16149618,-0.10296202,0.0025555964,0.0,0.0
0.2910552,0.21168977,-0.0976785,0.0,0.0
-0.9592204,-0.13040042,-0.06985287,0.0,0.0
-0.71998477,-0.024734754,-0.007664634,0.0,0.0
-0.30210662,0.38804728,-0.12274303,0.0,0.0
-0.74228543,0.3046199,-0.16194275,0.0,0.0
0.5631889,-0.12807363,0.1560372,0.0,0.0
0.0612761,0.10769104,-0.04107011,0.0,0.0
-0.235625,-0.008250793,-0.09055673,0.0,0.0
-0.29876435,0.09763563,-0.12793493,0.0,0.0
-0.32212463,-0.17121577,0.072717875,0.0,0.0
0.45478022,0.3292877,-0.11117969,0.0,0.0
-0.2208167,-0.20656753,-0.21787658,0.0,0.0
0.5056958,0.38330755,0.1017607,0.0,0.0
-0.49058077,0.09813577,-0.04719456,0.0,0.0
0.8220419,-0.08332649,-0.038757253,0.0,0.0
0.19384134,-0.048551835,-0.09682908,0.0,0.0
-0.51658803,0.15925625,-0.058424603,0.0,0.0
0.12192339,0.22926757,0.030507635,0.0,0.0
-0.95044935,0.059642203,-0.10031102,0.0,0.0
-0.20995535,0.094580255,-0.04759846,0.0,0.0
0.6191593,-0.21228004,-0.01676162,0.0,0.0
0.7189147,-0.16960397,0.11580783,0.0,0.0
0.3674661,-0.17539321,-0.0829223,0.0,0.0
0.132651,0.1253688,-0.09428561,0.0,0.0
0.23024404,-0.08398767,0.28208852,0.0,0.0
0.35136443,0.06850326,-0.041505106,0.0,0.0
-0.37638938,0.051523753,0.035801157,0.0,0.0
-0.09825385,-0.33754796,0.19594152,0.0,0.0
0.20841536,0.24274369,-0.10247258,0.0,0.0
-0.62903625,0.10179067,-0.10196146,0.0,0.0
-0.7452652,-0.17678994,0.24085301,0.0,0.0
0.31302756,-0.119899094,0.060151134,0.0,0.0
0.58380526,-0.1972044,0.114428595,0.0,0.0
0.3617734,-0.001472195,-0.0025699544,0.0,0.0
0.13812171,-0.15587257,-0.009104011,0.0,0.0
0.7214032,-0.07806179,-0.1559199,0.0,0.0
0.4545671,-0.17786272,0.17156744,0.0,0.0
0.7711995,0.106944956,-0.10579594,0.0,0.0
0.50579625,0.030701734,-0.17851439,0.0,0.0
-0.2287977,0.023488443,0.1078371,0.0,0.0
0.13911502,0.12498888,-0.19008693,0.0,0.0
-0.1415408,-0.26256517,0.2577196,0.0,0.0
0.68194693,0.09958666,0.19948138,0.0,0.0
-0.1401465,0.34355822,-0.06591362,0.0,0.0
-0.6455644,-0.03631683,0.026084304,0.0,0.0
0.75211304,-0.05692585,-0.13853389,0.0,0.0
-0.57151836,0.5201467,-0.053255998,0.0,0.0
-0.1112362,-0.17954491,-0.1490827,0.0,0.0
0.0256795,-0.019191489,0.12799941,0.0,0.0
-0.41638005,-0.19089422,-0.102100216,0.0,0.0
0.2238556,-0.060329333,-0.05106813,0.0,0.0
0.75122756,-0.1639246,0.042436197,0.0,0.0
-0.03597942,-0.14181326,-0.03276104,0.0,0.0
-0.49249095,0.16689317,-0.10327795,0.0,0.0
0.5988278,0.1888437,-0.11655238,0.0,0.0
-0.46668163,-0.16439481,-0.027007498,0.0,0.0
-1.0605913,-0.02936206,0.06771183,0.0,0.0
-0.5565839,-0.057317022,-0.008166091,0.0,0.0
-0.5674757,-0.050518673,0.01664561,0.0,0.0
-0.5212071,-0.011078299,-0.07346026,0.0,0.0
-0.44958842,-0.23387705,0.23966359,0.0,0.0
0.4944135,0.0943396,-0.099122815,0.0,0.0
0.52078307,0.06780148,0.14931163,0.0,0.0
0.31971493,-0.17612557,0.20490281,0.0,0.0
0.4166941,-0.13901919,0.1774262,0.0,0.0
-0.5852154,0.117453136,-0.11818397,0.0,0.0
0.45676175,-0.10191033,0.035540503,0.0,0.0
-0.5552076,0.11344473,-0.045638822,0.0,0.0
0.54765487,-0.1156685,-0.06722901,0.0,0.0
-0.44353354,0.088824496,-0.0691995,0.0,0.0
0.16990328,-0.025110925,0.10566288,0.0,0.0
0.031243134,-0.15784846,0.0349227,0.0,0.0
-0.37319672,0.17042066,-0.13871874,0.0,0.0
0.814617,0.443688,-0.14926156,0.0,0.0
0.6605793,-0.003306159,-0.03792261,0.0,0.0
0.708145,-0.004305253,-0.04073891,0.0,0.0
0.36338085,-0.03561704,-0.19596514,0.0,0.0
-0.69882125,-0.06964394,-0.13205469,0.0,0.0
-0.01217022,-0.0019998746,0.049003344,0.0,0.0
0.6441112,-0.037782334,0.09135701,0.0,0.0
-0.721714,0.02840675,-0.07875225,0.0,0.0
-0.5148009,0.09274867,-0.1359738,0.0,0.0
0.22906616,-0.069113076,0.13309535,0.0,0.0
0.108696744,-0.048071332,-0.040116947,0.0,0.0
-0.035382822,0.04688591,-0.04863753,0.0,0.0
0.62298363,0.29164886,-0.123867586,0.0,0.0
0.11007672,-0.077958725,0.1126673,0.0,0.0
-0.40429628,-0.15404719,0.050386794,0.0,0.0
0.4255577,0.27784625,-0.08573493,0.0,0.0
-0.013052151,0.0464535,0.14957607,0.0,0.0
-0.2032861,0.21759707,-0.1329963,0.0,0.0
-0.75555116,-0.17805138,-0.13710426,0.0,0.0
0.30769384,-0.20572995,0.05049846,0.0,0.0
0.8210291,-0.016295385,-0.06387911,0.0,0.0
0.1638099,-0.12174919,0.22355546,0.0,0.0
-0.037837043,0.008508407,-0.10682806,0.0,0.0
-0.86240387,0.08391233,-0.12612295,0.0,0.0
0.18817168,-0.11860395,0.12899338,0.0,0.0
-0.5213446,-0.2643969,-0.06177999,0.0,0.0
0.2964915,-0.04954609,0.12547058,0.0,0.0
0.78110284,0.049420994,-0.029234208,0.0,0.0
0.09422894,-0.17125373,0.30367562,0.0,0.0
0.64241946,0.060636427,-0.094492964,0.0,0.0
-0.24218455,0.16624439,-0.09748951,0.0,0.0
-0.0047726086,-0.093233965,0.18616219,0.0,0.0
0.3158622,-0.06941126,0.00020747693,0.0,0.0
-0.78743696,-0.022813413,-0.103059545,0.0,0.0
0.02816971,-0.23722804,0.0981124,0.0,0.0
-0.05383813,-0.15052737,-0.061019946,0.0,0.0
-0.4216053,0.14252138,-0.039949983,0.0,0.0
-0.22419049,-0.19841637,0.10710693,0.0,0.0
-0.16220273,0.104434624,-0.11945076,0.0,0.0
-0.08881316,0.07438227,-0.14335263,0.0,0.0
0.42255214,-0.12169411,0.05942472,0.0,0.0
-0.6880999,-0.11633785,-0.05235976,0.0,0.0
-0.7838898,-0.056186255,-0.015540956,0.0,0.0
-0.72374475,0.46060824,-0.1573165,0.0,0.0
0.05295312,-0.058698826,0.00158923,0.0,0.0
0.18524313,-0.18325986,0.09670771,0.0,0.0
-0.51222485,0.29037553,-0.11048636,0.0,0.0
-0.17580871,0.20935,-0.07957039,0.0,0.0
0.58512783,0.30755487,-0.056306377,0.0,0.0
-0.4500875,-0.10737588,0.25671393,0.0,0.0
0.28274167,-0.16650844,0.14826241,0.0,0.0
-0.4256036,-0.1071882,0.12224345,0.0,0.0
-0.6956064,-0.21470828,0.1523535,0.0,0.0
0.25707453,-0.057715237,-0.02726842,0.0,0.0
-0.58029544,-0.24969691,0.061592374,0.0,0.0
-0.8697101,0.082245134,-0.038571768,0.0,0.0
0.6116751,-0.21336362,0.08110732,0.0,0.0
0.21024525,-0.06659494,-0.03770227,0.0,0.0
0.34187382,-0.03722049,-0.14871418,0.0,0.0
0.3153593,0.030925497,0.043328848,0.0,0.0
-0.18478453,0.13586342,0.014376516,0.0,0.0
0.15937647,-0.098641865,0.08569899,0.0,0.0
0.63855016,-0.114139065,0.08902174,0.0,0.0
-0.016063187,0.03708588,0.067827545,0.0,0.0
0.6276931,0.18748651,-0.10292518,0.0,0.0
0.5192436,-0.06465198,-0.04951229,0.0,0.0
-0.25939432,0.1243045,-0.010374077,0.0,0.0
0.093643345,-0.15614566,-0.0070048305,0.0,0.0
0.13103157,-0.1384804,0.11431199,0.0,0.0
0.33185768,0.04445436,-0.030776024,0.0,0.0
0.6650472,-0.06866267,-0.09186297,0.0,0.0
-0.6694157,-0.18237518,-0.019938376,0.0,0.0
0.31180307,0.011080141,-0.06622024,0.0,0.0
0.5187482,-0.15579042,0.16801912,0.0,0.0
0.28931725,-0.06649004,0.014532207,0.0,0.0
0.67122257,-0.3299784,0.31922117,0.0,0.0
-0.72704655,0.21311632,-0.11583995,0.0,0.0
-0.6525179,-0.082805656,0.12912084,0.0,0.0
0.36528578,-0.13152911,0.093200825,0.0,0.0
0.092850335,0.10929591,-0.059911877,0.0,0.0
-0.4677511,-0.030959282,0.058218636,0.0,0.0
-0.7425622,-0.18408684,0.079989135,0.0,0.0
-0.34205183,0.09691525,-0.04875633,0.0,0.0
-0.54074115,-0.23022845,-0.009699056,0.0,0.0
-0.35338482,0.1349414,-0.1035109,0.0,0.0
-0.90155834,-0.020543154,-0.11609743,0.0,0.0
-0.40600142,0.029306747,-0.09253083,0.0,0.0
-0.241615,-0.0055328184,0.011102091,0.0,0.0
0.39682546,-0.08797722,-0.04196581,0.0,0.0
0.5559954,-0.12779681,0.22687949,0.0,0.0
0.06281946,-0.29951507,0.20054506,0.0,0.0
0.017892562,-0.07728261,-0.16926014,0.0,0.0
-0.6425491,0.014764091,-0.07869871,0.0,0.0
-0.0017591121,0.27113622,-0.01035963,0.0,0.0
0.46818808,0.017177194,0.11933336,0.0,0.0
0.6159936,-0.13408685,0.10299406,0.0,0.0
-0.48689803,-0.21589941,-0.05086705,0.0,0.0
-0.30296436,-0.006438719,-0.05853166,0.0,0.0
0.2434775,0.021054892,-0.06790624,0.0,0.0
-0.066502154,-0.20175786,0.13937768,0.0,0.0
0.04962401,-0.24519712,0.1744423,0.0,0.0
-0.3039533,-0.20564987,0.05045529,0.0,0.0
-0.10190009,0.16919516,-0.11311673,0.0,0.0
0.011914195,0.103056945,0.023172176,0.0,0.0
-0.08464801,0.015861478,0.12063065,0.0,0.0
-0.4140747,-0.22167146,-0.05045016,0.0,0.0
0.015194617,-0.03544656,-0.14869979,0.0,0.0
-0.65012527,-0.121170096,0.044142812,0.0,0.0
0.47379258,0.18409799,-0.036730237,0.0,0.0
0.19582196,0.09379524,-0.14629996,0.0,0.0
0.5249353,0.05650805,0.23759307,0.0,0.0
-0.63672966,0.14257193,0.039739564,0.0,0.0
-0.7875076,-0.04569109,-0.024655616,0.0,0.0
-0.044677127,-0.081681415,0.005378751,0.0,0.0
0.49104497,0.3923956,0.09193194,0.0,0.0
-0.77358854,-0.059215948,0.047705844,0.0,0.0
0.3019403,0.1060302,-0.13889024,0.0,0.0
0.5103041,-0.19514269,0.20830776,0.0,0.0
-0.8823476,-0.2626614,0.078502,0.0,0.0
0.05123781,-0.0763584,-0.008271976,0.0,0.0
0.28735438,-0.10692737,0.11315403,0.0,0.0
-0.024643885,-0.26905572,0.05733711,0.0,0.0
-0.4511,-0.1086625,-0.12715514,0.0,0.0
0.035064913,-0.03837718,-0.017895697,0.0,0.0
-0.015666954,0.13699979,0.00425831,0.0,0.0
-0.038847074,-0.2216914,0.15361026,0.0,0.0
0.47726047,-0.1250428,0.049335144,0.0,0.0
0.44042608,0.07257726,-0.09410134,0.0,0.0
0.051408228,0.0519734,-0.08234652,0.0,0.0
0.57259715,0.038797908,-0.115434445,0.0,0.0
0.3447811,-0.22337383,0.24115503,0.0,0.0
-0.69277936,0.22589779,-0.092467666,0.0,0.0
0.6219524,0.007774789,-0.16221479,0.0,0.0
0.44406176,0.13205518,-0.17773229,0.0,0.0
-0.11073342,-0.19291198,0.19137947,0.0,0.0
0.13100088,-0.098280184,-0.14195213,0.0,0.0
0.022786597,-0.06288432,-0.04130369,0.0,0.0
0.6296378,0.10177626,-0.082660064,0.0,0.0
-0.6423809,-0.0811031,-0.084432654,0.0,0.0
0.0635267,-0.13805716,0.019005293,0.0,0.0
-0.8306771,-0.10397903,-0.11487942,0.0,0.0
-0.59039205,-0.18234278,-0.12116377,0.0,0.0
-0.21904923,0.12766275,-0.04530491,0.0,0.0
0.2804608,-0.11808385,-0.12975709,0.0,0.0
-0.10357673,-0.09639515,0.20196506,0.0,0.0
-0.25696594,-0.014705036,-0.036385424,0.0,0.0
-0.6763167,0.13726671,-0.10487964,0.0,0.0
0.053739127,0.25038964,-0.06870543,0.0,0.0
-0.51574296,-0.037477445,-0.05285483,0.0,0.0
-0.4506599,-0.24639595,0.055303138,0.0,0.0
0.043840118,-0.18477367,0.15094611,0.0,0.0
-0.5083021,0.138875,-0.098700635,0.0,0.0
0.6057122,-0.028735287,-0.1274656,0.0,0.0
-0.12816404,-0.29055727,0.1936434,0.0,0.0
0.12119373,0.32124877,-0.11204447,0.0,0.0
0.40353224,-0.123609185,-0.17476802,0.0,0.0
-0.5832116,0.11196823,-0.12136327,0.0,0.0
0.30651295,-0.13523766,0.0784418,0.0,0.0
-0.58070683,-0.07091016,-0.1493746,0.0,0.0
0.5193042,-0.07468643,-0.04382311,0.0,0.0
0.6063185,-0.11254002,0.01248474,0.0,0.0
-0.6237234,0.11814344,0.036150582,0.0,0.0
0.20094661,0.042460814,-0.0783863,0.0,0.0
0.29244876,0.06767508,-0.07634312,0.0,0.0
0.4731728,0.14180882,-0.13782236,0.0,0.0
0.16626874,-0.13745406,-0.09121455,0.0,0.0
-0.18884215,-0.04789167,-0.036041163,0.0,0.0
0.58782136,-0.014633434,-0.09607209,0.0,0.0
0.19531402,-0.04701388,-0.14934647,0.0,0.0
-0.16342472,-0.05957235,0.006168756,0.0,0.0
0.045902777,-0.17829485,0.14840215,0.0,0.0
-0.20433776,0.022520157,0.096651234,0.0,0.0
0.2013497,0.20895666,-0.0012755827,0.0,0.0
0.24529296,-0.06130521,-0.06381035,0.0,0.0
-0.32683763,-0.09062421,0.06699066,0.0,0.0
0.5453588,-0.10749812,-0.13400054,0.0,0.0
-0.40336028,0.011303036,-0.12107192,0.0,0.0
0.12792236,-0.44975618,0.3288543,0.0,0.0
0.41793427,-0.09502264,0.07069455,0.0,0.0
0.57133645,-0.16759703,-0.06918543,0.0,0.0
-0.5346922,-0.21252206,0.17640106,0.0,0.0
0.52301276,-0.100880034,0.06430568,0.0,0.0
0.15172622,-0.10134915,0.17454909,0.0,0.0
-0.10734395,0.16857928,-0.087154195,0.0,0.0
0.6355963,-0.055675462,-0.120456554,0.0,0.0
0.7374553,-0.159917,0.07477263,0.0,0.0
0.35026318,-0.054807805,-0.07064341,0.0,0.0
-0.19009665,0.16152823,-0.015879042,0.0,0.0
-0.014475161,-0.17670612,-0.029782519,0.0,0.0
-0.36865848,-0.1256135,0.12241868,0.0,0.0
0.42538786,0.0018559882,0.063423224,0.0,0.0
0.21464667,0.19310424,0.058271267,0.0,0.0
-0.6813475,0.15140474,-0.099646434,0.0,0.0
-0.3774423,-0.03898945,0.054337524,0.0,0.0
0.42090553,-0.14196871,0.12939145,0.0,0.0
0.16733795,-0.16169405,0.09467046,0.0,0.0
-0.06620008,-0.04208927,-0.12889448,0.0,0.0
-0.35950327,0.060360093,-0.10877577,0.0,0.0
0.7428018,0.004940004,-0.054817412,0.0,0.0
-0.76220393,-0.012956399,-0.03664933,0.0,0.0
-0.39225197,-0.20604803,-0.06724128,0.0,0.0
0.16541103,-0.016450724,0.0066715046,0.0,0.0
-0.1888878,-0.16261515,0.05043852,0.0,0.0
0.10428219,0.09505002,-0.04407478,0.0,0.0
0.101854876,-0.11714531,-0.24300814,0.0,0.0
-0.77174574,-0.15952429,-0.03634739,0.0,0.0
0.4013777,-0.04535794,0.02651291,0.0,0.0
-0.33310902,-0.06316906,0.025335332,0.0,0.0
0.1597283,0.26005003,-0.09593707,0.0,0.0
-0.5737141,-0.30806655,0.20443696,0.0,0.0
0.27884358,0.28396413,-0.030180553,0.0,0.0
0.388088,-0.01460817,-0.116626106,0.0,0.0
0.76613635,-0.10978122,0.0833667,0.0,0.0
-0.5478266,0.018986862,-0.0684923,0.0,0.0
-0.0109390225,-0.089179754,0.097775355,0.0,0.0
0.06325052,0.2363291,-0.028308393,0.0,0.0
0.63597846,-0.28817528,0.05742642,0.0,0.0
-0.6107814,-0.13662186,0.06912366,0.0,0.0
0.717912,0.04173959,-0.08237343,0.0,0.0
0.5812451,0.059714988,0.08748272,0.0,0.0
-0.94436306,0.1969109,-0.18294506,0.0,0.0
0.21143125,-0.080032595,-0.02986326,0.0,0.0
0.43099546,0.50800353,0.26615828,0.0,0.0
-0.23575439,0.18463448,0.0017234283,0.0,0.0
-0.76620466,-0.07804541,0.027537344,0.0,0.0
-0.4904954,-0.15084395,0.027922096,0.0,0.0
0.4380828,-0.093032956,0.02014691,0.0,0.0
-0.15180407,-0.15797064,0.03451945,0.0,0.0
-0.17859407,-0.19039671,-0.005278847,0.0,0.0
-0.2430972,-0.26069313,0.15382509,0.0,0.0
0.19799754,0.25872946,-0.12818849,0.0,0.0
-0.41265237,0.004992278,-0.029992735,0.0,0.0
0.4592505,-0.06515993,-0.101019286,0.0,0.0
-0.45239052,-0.05884623,0.09887432,0.0,0.0
-0.07743862,-0.14550948,0.07718545,0.0,0.0
-0.5336492,-0.14649545,0.16904989,0.0,0.0
0.5389335,0.10505231,-0.09978131,0.0,0.0
-0.029460121,-0.091910176,0.103872925,0.0,0.0
0.17614016,0.010197107,0.045509398,0.0,0.0
-0.24502099,0.019005144,-0.009555163,0.0,0.0
-0.537536,0.1371202,-0.08178658,0.0,0.0
-0.42811635,0.12868309,-0.03415639,0.0,0.0
0.16261947,0.012234951,0.001902603,0.0,0.0
0.14213827,-0.17312907,0.13270956,0.0,0.0
-0.4443138,-0.08918864,-0.0062649404,0.0,0.0
-0.43678722,0.1675372,-0.11316674,0.0,0.0
0.4692798,0.0035348765,-0.04239633,0.0,0.0
0.21319479,0.2945973,-0.10934315,0.0,0.0
0.5140939,0.3351952,-0.08705519,0.0,0.0
-0.31843835,-0.20395674,-0.070392735,0.0,0.0
-0.52434814,0.08559147,-0.042644307,0.0,0.0
-0.03925493,0.062554546,-0.17342302,0.0,0.0
-0.059743553,-0.14317717,0.2267634,0.0,0.0
-0.10716307,-0.2151243,0.13525036,0.0,0.0
0.8953991,0.2637727,-0.14839952,0.0,0.0
0.35441786,0.24281871,-0.12886322,0.0,0.0
0.141513,-0.13453305,0.19537695,0.0,0.0
0.17812516,0.004255227,-0.10285656,0.0,0.0
-0.17127027,-0.027567148,-0.092242345,0.0,0.0
-0.015721729,-0.048130732,0.014707304,0.0,0.0
0.17032582,-0.0611578,-0.03496484,0.0,0.0
-0.8158699,0.039946623,-0.10568142,0.0,0.0
-0.24674228,-0.13895546,0.012848305,0.0,0.0
0.2943743,-0.034482453,0.11509511,0.0,0.0
-0.8008162,-0.05132023,-0.02811037,0.0,0.0
0.37459067,0.0494107,-0.085144505,0.0,0.0
-0.3107666,0.19159254,-0.19153841,0.0,0.0
-0.36578068,0.17264366,-0.01511536,0.0,0.0
0.08290424,0.09395844,-0.10423748,0.0,0.0
-0.54250073,0.0046380213,-0.11512318,0.0,0.0
-0.56026787,0.1026421,-0.039835706,0.0,0.0
0.59729725,0.0359971,-0.122277774,0.0,0.0
-0.17272052,-0.041121233,0.035766926,0.0,0.0
-0.6899304,-0.07178209,-0.11985876,0.0,0.0
-0.45868897,0.022045398,-0.028012963,0.0,0.0
-0.28105888,-0.078608446,-0.11595832,0.0,0.0
-0.1638995,0.07628842,-0.087600306,0.0,0.0
0.16923885,0.120536394,-0.15674533,0.0,0.0
-0.50393474,-0.05107804,-0.10460609,0.0,0.0
0.05494602,-0.12225452,0.11976244,0.0,0.0
0.2547205,0.13266814,-0.1399397,0.0,0.0
-0.30865374,-0.077934,-0.07538085,0.0,0.0
0.6583675,-0.15581319,-0.078830294,0.0,0.0
0.15592422,-0.18496406,0.14146617,0.0,0.0
0.41507304,-0.21364954,0.012306275,0.0,0.0
-0.24502401,0.23175539,-0.11878708,0.0,0.0
0.004523718,-0.15981004,-0.0052342615,0.0,0.0
0.37401545,0.01139229,0.019211033,0.0,0.0
-0.13678217,-0.22798415,-0.20267999,0.0,0.0
-0.12643093,0.16085379,-0.081739545,0.0,0.0
-0.37323812,-0.088822804,-0.13307963,0.0,0.0
0.39248407,0.41766658,-0.008451493,0.0,0.0
-0.3399414,0.046437234,-0.04883339,0.0,0.0
0.13552779,0.11599359,-0.13498189,0.0,0.0
-0.82152057,0.20943692,-0.108978964,0.0,0.0
0.33466855,0.0934906,0.13466242,0.0,0.0
0.70786977,0.090262145,-0.09924871,0.0,0.0
-0.17125654,-0.20306478,-0.0024635424,0.0,0.0
0.044116188,0.2202695,-0.090096116,0.0,0.0
-0.11260299,-0.009577542,-0.040146165,0.0,0.0
-0.35112038,-0.055263843,0.09690176,0.0,0.0
-0.13509758,-0.24311718,0.15890452,0.0,0.0
0.012847233,-0.20806673,0.16872437,0.0,0.0
-0.6065094,-0.23403144,0.16558574,0.0,0.0
-0.73301584,-0.10572075,0.03731553,0.0,0.0
-0.70817536,-0.048807926,-0.10284555,0.0,0.0
0.16542539,-0.18081586,-0.01068247,0.0,0.0
0.6026383,-0.16652647,0.099256895,0.0,0.0
0.3132572,-0.12684329,-0.033712987,0.0,0.0
-0.15202072,0.174508,-0.10656437,0.0,0.0
0.5438129,-0.15079924,0.0864607,0.0,0.0
-0.77957606,-0.11728596,0.098141864,0.0,0.0
0.298571,0.03244,-0.07211939,0.0,0.0
0.1691924,-0.34279555,0.10080878,0.0,0.0
-0.6945203,0.07888061,-0.038063772,0.0,0.0
-0.11431979,-0.32297292,0.23116596,0.0,0.0
0.7899244,0.030935077,-0.08029349,0.0,0.0
0.15958935,-0.23378342,0.18095665,0.0,0.0
-0.10923145,-0.1593274,0.19531702,0.0,0.0
0.47394484,0.08670524,-0.10032256,0.0,0.0
0.3460004,0.26395604,-0.16767514,0.0,0.0
0.16895069,0.25657442,-0.09097092,0.0,0.0
0.46106017,-0.17752667,0.12788656,0.0,0.0
0.24860634,-0.017946774,-0.13129446,0.0,0.0
-0.4638868,0.11154126,-0.0048877336,0.0,0.0
0.5306103,-0.0679936,0.133812,0.0,0.0
0.4446469,0.061713926,-0.11450209,0.0,0.0
-0.48582447,0.28158766,-0.09757901,0.0,0.0
-0.70187795,0.0041687833,-0.14418222,0.0,0.0
-0.25717536,-0.10404111,0.24958634,0.0,0.0
-0.5270728,-0.14184886,-0.1682052,0.0,0.0
-0.19699082,-0.19675443,0.09611418,0.0,0.0
0.39883676,-0.024764594,-0.13946404,0.0,0.0
0.678283,-0.005692968,0.034060642,0.0,0.0
-0.61449176,0.21750602,-0.12790582,0.0,0.0
-0.43309286,-0.04858801,0.0067094127,0.0,0.0
-0.0009522787,-0.13176188,-0.06968038,0.0,0.0
0.8814421,-0.08362045,0.022388633,0.0,0.0
-0.7736658,-0.088759504,0.07559762,0.0,0.0
-0.14195375,0.032127507,-0.04086911,0.0,0.0
0.33030695,0.036875624,-0.015087862,0.0,0.0
0.46349508,-0.13867246,-0.04829889,0.0,0.0
-0.4559318,-0.040348496,-0.018985737,0.0,0.0
-0.15866125,0.0066296044,-0.11286511,0.0,0.0
0.41863704,-0.043766256,-0.04884019,0.0,0.0
0.24723488,-0.10278606,-0.12584999,0.0,0.0
-0.16131754,-0.09176252,0.16757041,0.0,0.0
-0.020042775,-0.07312589,6.823933e-05,0.0,0.0
-0.18141758,0.07992429,-0.041516036,0.0,0.0
-0.42698187,-0.11483204,0.1540683,0.0,0.0
-0.5598145,-0.16976674,0.16831589,0.0,0.0
-0.1631281,-0.07698156,-0.087742664,0.0,0.0
0.11832349,-0.033529196,0.104136474,0.0,0.0
0.58223313,0.030693743,-0.13773516,0.0,0.0
-0.5935776,-0.032657467,0.0013631651,0.0,0.0
0.6260435,-0.19330229,0.31096822,0.0,0.0
-0.23054919,0.38282424,0.07216435,0.0,0.0
0.32905462,0.038212433,0.09954491,0.0,0.0
-0.6343336,-0.026005406,-0.0633965,0.0,0.0
0.7276269,-0.14684106,0.09600774,0.0,0.0
-0.33817992,0.21068461,-0.026613135,0.0,0.0
-0.2319692,-0.19068146,0.12893286,0.0,0.0
0.18965118,0.54664814,0.047880225,0.0,0.0
-0.78846526,0.064810574,-0.009346932,0.0,0.0
-0.6161548,-0.1337463,0.06666746,0.0,0.0
-0.32457456,-0.16881406,0.079015955,0.0,0.0
-0.3233245,0.06731433,-0.1412517,0.0,0.0
0.113875404,-0.009856959,-0.17972714,0.0,0.0
0.43579543,0.21896337,-0.28397533,0.0,0.0
0.5451616,-0.22101218,0.004354145,0.0,0.0
-0.049312398,-0.05966139,-0.16205218,0.0,0.0
0.34581816,0.35497877,0.027178735,0.0,0.0
0.051019076,-0.17081094,0.105764076,0.0,0.0
-0.3440589,0.17918594,-0.09047338,0.0,0.0
-0.40210342,0.11377004,-0.05554197,0.0,0.0
0.33612722,-0.12384649,-0.030557936,0.0,0.0
-0.3251852,-0.12579694,-0.119387776,0.0,0.0
-0.18864316,0.048703436,-0.028931074,0.0,0.0
0.18034515,0.13796352,0.0059321234,0.0,0.0
-0.41910172,0.12864001,-0.066431165,0.0,0.0
-0.13544127,0.28518152,-0.121281244,0.0,0.0
0.8066959,-0.14383294,0.1438427,0.0,0.0
0.25963518,0.061674763,-0.090390034,0.0,0.0
-0.29216626,0.1740418,-0.074397966,0.0,0.0
0.2230082,-0.19712932,-0.048230603,0.0,0.0
0.5818292,-0.07956622,-0.15567563,0.0,0.0
0.55631554,-0.15499854,0.08080979,0.0,0.0
0.12665638,0.023308827,-0.11482818,0.0,0.0
0.10080049,-0.0971897,0.010061993,0.0,0.0
-0.25599268,-0.12368733,0.097290635,0.0,0.0
-0.0156988,-0.33736965,0.02368836,0.0,0.0
0.5815176,0.09049644,-0.10502815,0.0,0.0
0.23932639,0.12652424,-0.1047348,0.0,0.0
-0.13911009,-0.013075619,-0.070780575,0.0,0.0
0.36268264,0.15031038,-0.08109401,0.0,0.0
-0.5770233,0.091299534,-0.031913858,0.0,0.0
-0.78764904,-0.102989376,-0.044775967,0.0,0.0
-0.07078397,-0.15735845,0.12364371,0.0,0.0
0.17712758,-0.077749886,-0.045548905,0.0,0.0
-0.19544195,0.10664669,-0.033900984,0.0,0.0
0.21357322,-0.02191963,0.008879303,0.0,0.0
0.04441918,0.078078225,-0.12911049,0.0,0.0
-0.6692918,-0.21222502,0.05382931,0.0,0.0
0.19578655,0.00033854213,-0.020544352,0.0,0.0
-0.47460997,-0.029913783,-0.041460514,0.0,0.0
0.08272624,0.12665226,-0.116429605,0.0,0.0
0.58573663,-0.087595046,-0.13012524,0.0,0.0
0.69846123,-0.17594333,-0.07090225,0.0,0.0
-0.86930877,0.02665769,-0.0983826,0.0,0.0
-0.08748253,0.06690964,0.0078720795,0.0,0.0
0.10433264,-0.12993893,0.17433275,0.0,0.0
-0.26862806,0.16848235,-0.10524027,0.0,0.0
-0.28105152,-0.023743106,-0.0678854,0.0,0.0
-0.24251977,-0.18542098,-0.10161075,0.0,0.0
-0.16361973,-0.17842181,0.1718595,0.0,0.0
-0.66408044,0.00091024954,0.0033507256,0.0,0.0
-0.24260458,-0.032768123,0.06485689,0.0,0.0
0.56690615,0.12798214,0.0026726597,0.0,0.0
0.5397837,0.08434323,0.09641971,0.0,0.0
-0.008566446,-0.1430769,0.15762098,0.0,0.0
0.6770066,-0.16935138,-0.03686137,0.0,0.0
-0.78723574,0.18040192,0.05931688,0.0,0.0
0.12505774,-0.030015327,0.005713581,0.0,0.0
0.030948631,0.22710486,-0.02731127,0.0,0.0
-0.5997141,-0.07207897,-0.14067067,0.0,0.0
0.2832929,0.3544863,-0.07833237,0.0,0.0
0.14367354,-0.0063004773,-0.0065136296,0.0,0.0
0.065074,-0.17440021,-0.00032832622,0.0,0.0
0.5851484,-0.083872475,0.09575876,0.0,0.0
-0.7589277,-0.12819669,-0.10410649,0.0,0.0
-0.24789041,0.0008406561,-0.1036078,0.0,0.0
-0.101979926,-0.008454701,-0.16020653,0.0,0.0
0.73069096,-0.024809258,-0.17910613,0.0,0.0
-0.73078173,0.11167174,-0.09700473,0.0,0.0
0.55321956,-0.15099531,0.34559193,0.0,0.0
0.58210933,-0.018307086,-0.08625618,0.0,0.0
0.2150463,-0.31634316,0.20466873,0.0,0.0
-0.61650527,-0.05435739,0.049314335,0.0,0.0
0.33031386,-0.039508272,-0.034105394,0.0,0.0
0.5805694,-0.27010095,0.10474394,0.0,0.0
-0.15283638,0.031100456,-0.07983435,0.0,0.0
0.28337732,-0.058962066,0.080083676,0.0,0.0
0.5944225,0.03573772,-0.093935855,0.0,0.0
0.2617736,-0.16363683,0.27415007,0.0,0.0
0.028962636,-0.016881369,0.089231774,0.0,0.0
0.15981686,0.0074732597,0.012788339,0.0,0.0
-0.47318065,-0.009756699,-0.11163048,0.0,0.0
0.42854676,0.0411137,-0.044528853,0.0,0.0
0.22308236,-0.12994824,-0.023053199,0.0,0.0
0.65613085,0.14663197,0.035790715,0.0,0.0
0.36426726,-0.21602584,0.26647308,0.0,0.0
-0.66989875,0.093355715,0.033906255,0.0,0.0
0.43305808,-0.17370328,0.22915302,0.0,0.0
-0.09072017,-0.007463869,-0.10274307,0.0,0.0
0.374711,-0.13416447,0.07649504,0.0,0.0
-0.25693235,0.0824585,-0.08062895,0.0,0.0
0.058583345,-0.032632705,0.007953474,0.0,0.0
-0.43655762,-0.17308208,0.18591605,0.0,0.0
0.5268379,-0.11824354,-0.0077556768,0.0,0.0
-0.75532985,-0.06601559,-0.038960736,0.0,0.0
-0.4639824,0.08830667,-0.086554274,0.0,0.0
-0.6800341,-0.17945477,0.0958224,0.0,0.0
-0.03449023,-0.05036174,-0.008354784,0.0,0.0
-0.80524045,-0.104842395,-0.015994523,0.0,0.0
0.4536913,-0.15640806,0.1523363,0.0,0.0
-0.58405554,0.12484923,-0.097459786,0.0,0.0
0.55753314,-0.18413053,0.1633935,0.0,0.0
-0.15954284,0.14831239,-0.1458028,0.0,0.0
0.6187767,-0.11792773,0.20384763,0.0,0.0
0.5821683,-0.06671974,0.0120032905,0.0,0.0
-0.5767131,0.28809735,-0.07318388,0.0,0.0
-0.9306841,0.023517188,-0.106590934,0.0,0.0
-0.86796206,-0.031027788,0.018087585,0.0,0.0
0.74689615,-0.035026457,0.0024667974,0.0,0.0
0.25057715,-0.20748284,0.22399199,0.0,0.0
-0.087445684,-0.04764282,0.09344003,0.0,0.0
0.5469003,-0.0788547,-0.10475686,0.0,0.0
0.57752687,0.23061289,-0.09011925,0.0,0.0
0.56261796,0.054634754,-0.11361178,0.0,0.0
0.24429484,-0.02693198,-0.0821118,0.0,0.0
0.65073436,0.062262207,-0.09793134,0.0,0.0
-0.4072413,-0.22393714,-0.08426014,0.0,0.0
0.14083208,0.08474265,-0.08835824,0.0,0.0
-0.26392502,-0.23863521,0.142732,0.0,0.0
0.20664594,-0.038758967,0.17113467,0.0,0.0
0.14571494,-0.04684212,-0.11824022,0.0,0.0
-0.7848801,0.11787546,-0.123073705,0.0,0.0
-0.055375535,-0.077266045,-0.16611455,0.0,0.0
-0.21315661,-0.17304306,0.06796767,0.0,0.0
0.6452165,0.46929383,-0.11556588,0.0,0.0
0.29165104,-0.08253508,0.18421216,0.0,0.0
-0.2758819,0.0065956092,-0.13214938,0.0,0.0
0.357954,-0.1282356,0.06443236,0.0,0.0
0.3572824,-0.14635356,-0.018321274,0.0,0.0
-0.2967793,-0.018638976,-0.13359064,0.0,0.0
0.17693442,-0.29775462,0.12772001,0.0,0.0
0.088958465,0.04160325,-0.077079326,0.0,0.0
-0.549853,-0.0050420235,0.015843967,0.0,0.0
-0.30614516,0.3270011,-0.08722563,0.0,0.0
-0.15736684,0.040833753,-0.15564965,0.0,0.0
-0.66603637,-0.09709429,-0.014424552,0.0,0.0
-0.33192247,-0.09715813,-0.038468927,0.0,0.0
-0.2879978,-0.012489695,-0.09884041,0.0,0.0
-0.70948327,-0.20623407,-0.0489997,0.0,0.0
0.3131462,0.022885129,-0.036755025,0.0,0.0
0.5116956,-0.121128954,-0.11910433,0.0,0.0
0.01797219,0.13890615,-0.118079074,0.0,0.0
0.66903,-0.15660481,0.24978112,0.0,0.0
-0.03471683,-0.21587105,0.20338923,0.0,0.0
-0.06405896,0.28848448,-0.08829509,0.0,0.0
-0.4968442,-0.20150894,0.2645665,0.0,0.0
0.2796484,-0.16172981,0.0038142109,0.0,0.0
0.1478212,-0.0051907944,0.070573606,0.0,0.0
0.2612017,-0.15353401,0.008424517,0.0,0.0
-0.13112411,-0.25635105,0.103411764,0.0,0.0
-0.007529008,-0.11220301,-0.093093015,0.0,0.0
-0.7027891,-0.0816497,-0.046639383,0.0,0.0
0.60498923,0.019396367,-0.11642157,0.0,0.0
0.38734898,-0.11735687,-0.0875888,0.0,0.0
-0.904582,-0.0023932117,-0.0743648,0.0,0.0
0.55205816,-0.18303299,0.18061665,0.0,0.0
0.027365617,-0.058894124,-0.016963817,0.0,0.0
-0.1251703,-0.20854494,0.20259069,0.0,0.0
0.14424638,-0.07383348,0.22643694,0.0,0.0
0.56072503,0.13171108,-0.12635018,0.0,0.0
0.49546325,-0.18489183,0.12798359,0.0,0.0
0.33636102,-0.028179333,0.01802349,0.0,0.0
0.6096878,0.39110905,-0.10549189,0.0,0.0
0.30513474,0.18953717,-0.11676605,0.0,0.0
0.79524183,0.008892676,-0.10528387,0.0,0.0
-0.4533112,0.18456468,-0.08722197,0.0,0.0
-1.0398234,0.08810045,-0.12746784,0.0,0.0
-0.14088373,-0.20398971,-0.14572082,0.0,0.0
-0.5521122,0.09125078,-0.09222478,0.0,0.0
0.09634159,-0.118958235,0.15285513,0.0,0.0
0.64634055,-0.11374861,-0.17216256,0.0,0.0
-0.7609178,-0.048465416,-0.040490914,0.0,0.0
0.0310522,-0.06984379,0.14150631,0.0,0.0
0.4307173,-0.20163363,0.15090929,0.0,0.0
-0.013833547,0.024408786,-0.09269892,0.0,0.0
-0.46495032,0.031490948,0.063179635,0.0,0.0
0.65426254,-0.16917543,0.29479206,0.0,0.0
-0.3034369,-0.23426591,0.35529366,0.0,0.0
-0.49766782,0.14026415,-0.07396028,0.0,0.0
0.24291489,0.23964156,0.06560552,0.0,0.0
-0.08043681,-0.2286447,0.18238288,0.0,0.0
0.40861318,-0.089376435,0.14144933,0.0,0.0
-0.41197094,-0.31767428,-0.10740446,0.0,0.0
0.11830465,0.05775149,-0.033921104,0.0,0.0
0.7941644,-0.0715845,-0.03521725,0.0,0.0
-0.8899102,0.052390486,-0.008166708,0.0,0.0
-0.098837174,0.080764316,-0.08997262,0.0,0.0
0.09843372,-0.029365182,-0.112392426,0.0,0.0
-0.5590259,0.07929404,-0.11292821,0.0,0.0
0.6680165,0.2750086,-0.114146754,0.0,0.0
0.22666545,-0.094034635,0.022919934,0.0,0.0
0.091361694,-0.031565733,0.009589783,0.0,0.0
0.36282808,-0.17834115,0.14611247,0.0,0.0
0.5722861,-0.15686105,-0.053081296,0.0,0.0
0.4588128,0.0731619,-0.05211847,0.0,0.0
0.013072477,-0.103524886,-0.07983727,0.0,0.0
-0.06428274,0.1931562,-0.13909715,0.0,0.0
0.14435801,-0.19246547,0.12561603,0.0,0.0
0.035069764,-0.36383095,0.267711,0.0,0.0
0.32627508,0.04769045,-0.051354006,0.0,0.0
0.48285565,0.0727557,-0.041566648,0.0,0.0
0.13898344,-0.17353289,0.20136896,0.0,0.0
-0.67951405,-0.032149497,-0.050249577,0.0,0.0
0.62702966,0.08799219,-0.08064776,0.0,0.0
0.6424087,-0.13148566,0.002340293,0.0,0.0
0.027020859,-0.22210082,0.26404828,0.0,0.0
0.5133813,-0.08372523,0.09377051,0.0,0.0
0.2453716,0.025270442,-0.1520025,0.0,0.0
0.38419786,-0.013320545,-0.050368227,0.0,0.0
0.74167305,-0.3765246,0.048176747,0.0,0.0
-0.08767372,0.026703473,-0.12503827,0.0,0.0
-0.3382798,0.058919337,-0.12884758,0.0,0.0
0.046827078,0.061342202,-0.14256309,0.0,0.0
0.38416144,0.0016347731,0.052357964,0.0,0.0
-0.30934265,-0.09407358,0.23085421,0.0,0.0
0.7299422,-0.17463195,0.003776274,0.0,0.0
0.5789361,-0.026165977,0.031618986,0.0,0.0
-0.32185656,-0.1998496,-0.082302,0.0,0.0
0.09982252,0.08061183,-0.053817734,0.0,0.0
0.9344234,-0.25740373,-0.042666975,0.0,0.0
-0.05633232,0.1556634,-0.0913396,0.0,0.0
-0.574835,-0.05920049,0.03022447,0.0,0.0
0.18484776,-0.033143777,-0.080858044,0.0,0.0
0.16097498,-0.038908675,0.102164336,0.0,0.0
-0.18579872,0.08217247,-0.13670973,0.0,0.0
0.4098101,-0.091320045,0.12545657,0.0,0.0
-0.07567506,0.120835155,-0.09357973,0.0,0.0
-0.80056924,0.054780666,0.029630711,0.0,0.0
-0.36106715,-0.019336337,-0.113856904,0.0,0.0
0.21794379,-0.14217505,-0.041520525,0.0,0.0
0.1952823,-0.13818681,-0.016967908,0.0,0.0
-0.23612389,-0.22571284,0.17085466,0.0,0.0
0.23785347,0.021464651,-0.060631454,0.0,0.0
0.28049818,0.20934702,-0.12796335,0.0,0.0
0.10873419,0.08582681,-0.04456357,0.0,0.0
-0.43040016,0.07274933,-0.059211496,0.0,0.0
-0.033632796,0.21638303,-0.09233889,0.0,0.0
-0.17198226,0.10708522,-0.057752598,0.0,0.0
0.21716778,0.21611898,-0.02902052,0.0,0.0
-0.0424759,0.0972903,-0.14230455,0.0,0.0
-0.57733697,-0.21236837,-0.09335813,0.0,0.0
-0.07032092,0.06489861,-0.11493197,0.0,0.0
-0.57939404,-0.20271882,0.21077901,0.0,0.0
0.04110476,-0.16613111,0.039354432,0.0,0.0
-0.2502306,-0.09592981,0.15327238,0.0,0.0
0.25413647,0.04535917,-0.015062381,0.0,0.0
-0.39560455,-0.15351278,0.18459687,0.0,0.0
-0.82272655,-0.037470058,-0.089854755,0.0,0.0
-0.28839508,-0.0019624769,-0.12630393,0.0,0.0
-0.13729571,-0.05295748,0.14626947,0.0,0.0
-0.7650972,0.011323951,-0.12981923,0.0,0.0
-0.79396904,-0.05169469,-0.026141962,0.0,0.0
0.5901119,-0.12267821,0.12286634,0.0,0.0
-0.45782632,0.27222574,-0.06927189,0.0,0.0
0.6675189,-0.016448142,-0.047521383,0.0,0.0
-0.22824755,-0.036506582,0.013842006,0.0,0.0
-0.22838601,0.028095791,-0.01294178,0.0,0.0
0.072296515,-0.1398242,-0.15113097,0.0,0.0
-0.64326054,-0.049341403,0.044565964,0.0,0.0
0.33074802,0.04045626,-0.04405813,0.0,0.0
-0.7821465,0.10617162,-0.09277052,0.0,0.0
0.41295803,-0.17698824,0.10140853,0.0,0.0
-0.6095705,-0.08982247,-0.017845076,0.0,0.0
0.28998542,-0.2121025,0.12996288,0.0,0.0
-0.6511745,-0.19384132,-0.06762858,0.0,0.0
-0.79427916,-0.19734393,-0.11023881,0.0,0.0
0.45092687,-0.19272535,0.102523014,0.0,0.0
0.041252382,0.08383498,-0.11575767,0.0,0.0
0.3005883,0.11145387,-0.0777159,0.0,0.0
0.27814236,-0.1375888,0.16022068,0.0,0.0
-0.84199476,0.20135297,-0.13246438,0.0,0.0
-0.0827956,-0.17507257,0.2066449,0.0,0.0
-0.01313502,0.04018337,-0.1618626,0.0,0.0
0.7970149,-0.1450027,-0.041655898,0.0,0.0
-0.061747592,0.17616208,-0.16956554,0.0,0.0
0.23954889,0.0089770295,-0.12375963,0.0,0.0
-0.2538774,-0.16635369,0.24093632,0.0,0.0
0.30105728,-0.049748696,-0.16038665,0.0,0.0
-0.5027361,-0.21514785,-0.028698392,0.0,0.0
-0.78419054,-0.18355061,-0.119523436,0.0,0.0
-0.30989975,0.31606948,-0.107354105,0.0,0.0
-0.21496317,-0.12678507,0.17146124,0.0,0.0
-0.18585192,-0.19178765,0.21186957,0.0,0.0
0.026473802,-0.17726463,-0.055747047,0.0,0.0
0.2577895,0.02450871,-0.075805984,0.0,0.0
0.43080598,-0.12424106,0.053400043,0.0,0.0
-0.32802156,-0.027491096,0.08465947,0.0,0.0
-0.038914736,-0.15223691,0.096709706,0.0,0.0
-0.279374,0.09985091,-0.012755672,0.0,0.0
0.5378246,0.28665227,-0.13287884,0.0,0.0
-0.1500289,-0.12447026,0.006391144,0.0,0.0
-0.29728693,0.077005774,-0.088912986,0.0,0.0
0.09889582,0.28512117,-0.11008752,0.0,0.0
0.5611249,-0.14527738,-0.1412383,0.0,0.0
0.10001611,-0.08086733,0.2822374,0.0,0.0
-0.31207323,-0.20365982,0.14922692,0.0,0.0
0.05107252,0.21182752,-0.08104551,0.0,0.0
-0.053793654,-0.07000398,0.10680668,0.0,0.0
-0.14867334,-0.1971096,0.1806258,0.0,0.0
0.36255145,0.09283078,-0.043949034,0.0,0.0
0.09553194,-0.1404848,0.040744074,0.0,0.0
0.3889844,0.28612226,-0.045441575,0.0,0.0
0.50718206,-0.09913403,0.1239381,0.0,0.0
0.8897014,-0.06335078,-0.007967077,0.0,0.0
-0.13082477,0.016589126,-0.074085,0.0,0.0
-0.4632196,-0.07900908,-0.17231849,0.0,0.0
0.07492789,-0.13366102,-0.13626666,0.0,0.0
-0.12099004,-0.29968202,0.072389744,0.0,0.0
0.34683713,0.22759368,-0.041901007,0.0,0.0
-0.23434243,-0.24052101,0.116962165,0.0,0.0
-0.72654337,-0.07290011,-0.009028928,0.0,0.0
-0.42625362,-0.1258026,0.1061423,0.0,0.0
-0.47231826,-0.17098951,0.1559967,0.0,0.0
-0.44537288,-0.13046347,-0.06351807,0.0,0.0
0.41724902,-0.14258038,0.14044462,0.0,0.0
-0.24437049,-0.16334094,0.025177902,0.0,0.0
0.79938346,-0.06455431,-0.0835189,0.0,0.0
-0.57136065,0.19891636,-0.108379945,0.0,0.0
0.098920204,0.108822115,-0.121840894,0.0,0.0
-0.11168886,0.067898765,-0.100389525,0.0,0.0
0.22817247,0.30049077,-0.042348493,0.0,0.0
0.6162095,-0.20069855,0.048219595,0.0,0.0
-0.842604,-0.10358805,0.063198484,0.0,0.0
0.14276135,-0.16182043,-0.0024539242,0.0,0.0
0.6196338,-0.11462416,-0.067902274,0.0,0.0
0.38860676,-0.0003178189,-0.10174814,0.0,0.0
0.64543796,-0.11801298,-0.034320716,0.0,0.0
-0.9279852,-0.11765116,-0.07625855,0.0,0.0
-0.55050737,0.14576456,-0.09984982,0.0,0.0
-0.32667574,-0.022650179,-0.015672956,0.0,0.0
-0.07030433,-0.19384436,0.16989145,0.0,0.0
0.23064446,0.1911941,0.001216819,0.0,0.0
0.47430912,-0.05865989,0.021850066,0.0,0.0
-0.57939315,-0.15894966,-0.09304086,0.0,0.0
-0.9509002,0.12324555,-0.07294383,0.0,0.0
-0.6958341,0.03662665,-0.032631908,0.0,0.0
-0.3402409,0.0076666903,-0.13292193,0.0,0.0
0.24682842,-0.11364264,0.0906078,0.0,0.0
0.22447954,-0.1338941,0.07069812,0.0,0.0
0.71533203,-0.16652836,0.16608776,0.0,0.0
0.08632973,0.18352628,-0.06307957,0.0,0.0
0.111581676,0.19199331,-0.040166017,0.0,0.0
0.42801145,0.38776055,-0.03619099,0.0,0.0
0.07798273,0.05180224,-0.05233639,0.0,0.0
0.32608777,0.30413276,-0.015079454,0.0,0.0
-0.36539638,-0.012196568,0.014306115,0.0,0.0
-0.48280975,-0.23796077,0.1284418,0.0,0.0
0.30454886,-0.08001663,0.087749206,0.0,0.0
-0.49080804,-0.01603449,0.02329922,0.0,0.0
-0.4860396,-0.21699442,0.14703374,0.0,0.0
-0.16679585,-0.073296316,0.0008589935,0.0,0.0
0.3638056,0.19133884,-0.12090226,0.0,0.0
0.35172516,-0.08227377,0.13638319,0.0,0.0
0.37596634,-0.22705013,0.11803681,0.0,0.0
-0.08328681,0.08263407,-0.043689545,0.0,0.0
0.13059747,-0.08344188,-0.004522689,0.0,0.0
-0.62690663,-0.21868934,-0.05336668,0.0,0.0
-0.48133028,0.10363503,-0.046089973,0.0,0.0
0.061647106,-0.10125663,-0.15711045,0.0,0.0
-0.0033688003,0.06922334,-0.04598772,0.0,0.0
-0.37379032,0.1980765,-0.039535474,0.0,0.0
-0.44958293,0.18353945,-0.16407421,0.0,0.0
-0.901499,-0.056730807,0.0080084745,0.0,0.0
-0.5192762,-0.07509228,0.06215335,0.0,0.0
-0.17244373,-0.0926582,-0.13283044,0.0,0.0
-0.45627567,0.053759944,0.015533027,0.0,0.0
-0.07506668,-0.1524077,0.23306923,0.0,0.0
0.45802858,0.41775903,-0.00039531104,0.0,0.0
0.29712993,0.017187363,0.13450515,0.0,0.0
-0.13075772,-0.1611141,0.22730973,0.0,0.0
-0.22395347,-0.06150968,-0.11422204,0.0,0.0
-0.10719092,-0.0828388,0.016384888,0.0,0.0
0.62502086,0.041314255,-0.047902733,0.0,0.0
-0.78472793,-0.022479596,0.0120471865,0.0,0.0
0.0008108272,0.048194442,-0.10926454,0.0,0.0
0.8376783,-0.15410051,-0.11131427,0.0,0.0
-0.0050345724,-0.11372447,0.17097877,0.0,0.0
0.7080696,-0.17023517,0.14455113,0.0,0.0
-0.25238147,-0.09343066,-0.1370119,0.0,0.0
0.06396693,-0.16089752,0.09930854,0.0,0.0
0.51695603,0.43015254,-0.018515201,0.0,0.0
0.35855508,0.07216126,-0.09972334,0.0,0.0
-0.60375714,-0.089566186,0.03211798,0.0,0.0
-0.06877402,-0.0330172,-0.08510254,0.0,0.0
0.17677885,-0.1352976,0.14858864,0.0,0.0
0.42447606,-0.061262544,0.027190603,0.0,0.0
0.65389323,-0.10598762,0.122621864,0.0,0.0
0.10464243,-0.20502979,0.31061023,0.0,0.0
0.06930569,0.0686336,0.20639056,0.0,0.0
-0.7840412,0.17441706,-0.12047564,0.0,0.0
-0.24225743,-0.09061497,0.11626136,0.0,0.0
-0.33022314,-0.24130425,0.012920838,0.0,0.0
-0.48910275,-0.19043623,0.04878679,0.0,0.0
0.6572978,0.4471704,-0.13576318,0.0,0.0
0.34994364,-0.2629326,-0.028841883,0.0,0.0
0.6819841,0.047697727,0.026680466,0.0,0.0
0.62603253,-0.17366648,0.2053451,0.0,0.0
0.4460045,-0.044296425,-0.0029590644,0.0,0.0
0.59966576,-0.12617761,-0.093116716,0.0,0.0
-0.5903001,-0.051001992,-0.05445523,0.0,0.0
0.14091986,0.23125297,-0.045548864,0.0,0.0
-0.25993136,-0.09057218,0.040794462,0.0,0.0
0.49562812,-0.1742216,-0.053844452,0.0,0.0
-0.20665433,-0.07560155,-0.00030067447,0.0,0.0
-0.3848337,-0.011905617,0.05328023,0.0,0.0
0.31898347,-0.39499986,0.11469686,0.0,0.0
-0.037397154,-0.039936863,0.042351354,0.0,0.0
-0.70157975,0.24728987,-0.094641656,0.0,0.0
0.51060086,0.004133675,-0.12031215,0.0,0.0
0.14940149,-0.13941991,0.08125457,0.0,0.0
-0.0836964,-0.088134766,0.06754871,0.0,0.0
-0.8034545,0.053712588,-0.10906786,0.0,0.0
0.104873866,-0.038506664,0.048992824,0.0,0.0
0.53627145,-0.005158889,-0.045585852,0.0,0.0
-0.5401029,-0.0247972,-0.085608356,0.0,0.0
-0.157913,0.26094407,-0.18409413,0.0,0.0
0.5791286,0.25869814,-0.17882222,0.0,0.0
-0.6249616,0.026443537,-0.06768589,0.0,0.0
-0.27628443,0.03537601,-0.1763933,0.0,0.0
0.3101508,-0.052221864,-0.03987696,0.0,0.0
0.54526055,-0.26337606,0.13237083,0.0,0.0
0.5924684,-0.1841068,0.2807475,0.0,0.0
0.27120632,-0.21729043,0.049342055,0.0,0.0
0.39098138,-0.10086777,0.17530718,0.0,0.0
-0.81456244,-0.11408099,-0.18215145,0.0,0.0
-0.6315122,-0.056724403,0.012728999,0.0,0.0
0.4726321,-0.05386648,0.10058156,0.0,0.0
-0.27056536,0.07294075,-0.06744375,0.0,0.0
-0.7036432,-0.1149881,0.0839595,0.0,0.0
-0.32990763,0.015749786,-0.071906224,0.0,0.0
0.3787369,0.043062028,-0.041631423,0.0,0.0
-0.6017135,0.1614164,-0.08306615,0.0,0.0
-0.31670663,-0.05337723,0.07021287,0.0,0.0
0.65170664,0.106376834,-0.047684774,0.0,0.0
-0.42940626,0.07910134,-0.10695919,0.0,0.0
0.023299484,-0.15250939,0.19991076,0.0,0.0
0.30278593,0.20421024,-0.052595664,0.0,0.0
0.56931627,0.076151125,0.17744878,0.0,0.0
-0.20979428,0.028994564,-0.013844227,0.0,0.0
-0.39459407,0.00790919,-0.121544644,0.0,0.0
0.11339543,-0.1142149,0.14831911,0.0,0.0
0.1469313,0.015288174,0.05081881,0.0,0.0
0.23460801,0.1707681,0.018920945,0.0,0.0
-0.32996017,-0.081727974,-0.037150834,0.0,0.0
0.764193,-0.22440119,0.16603258,0.0,0.0
0.7371839,0.03507367,-0.12736543,0.0,0.0
-0.1006368,0.18923797,-0.014373479,0.0,0.0
0.048030864,0.06929343,-0.10999869,0.0,0.0
0.6690257,-0.08484516,-0.113514714,0.0,0.0
-0.7272248,0.21995674,-0.11624219,0.0,0.0
-0.8675171,-0.19912602,-0.08269662,0.0,0.0
-0.8526157,-0.038908303,-0.051456,0.0,0.0
-0.8829312,0.12691048,-0.11309949,0.0,0.0
0.5820029,-0.078599684,-0.12183029,0.0,0.0
-0.56159335,-0.07284513,-0.017501168,0.0,0.0
0.26518783,0.013642382,-0.044469673,0.0,0.0
0.19770956,-0.14574027,0.07750439,0.0,0.0
0.15995915,0.18627222,-0.090036996,0.0,0.0
0.49687412,0.23514456,0.043614715,0.0,0.0
-0.7897052,-0.0697219,-0.08692726,0.0,0.0
0.45290032,-0.15542316,0.15439296,0.0,0.0
0.031030253,0.0581696,-0.09098188,0.0,0.0
0.102175824,-0.016499197,0.027594443,0.0,0.0
0.5217073,-0.0954982,-0.13974279,0.0,0.0
0.08724457,-0.16064025,0.03245739,0.0,0.0
0.84325886,-0.109009326,0.1365788,0.0,0.0
0.3083236,-0.010561812,-0.09652475,0.0,0.0
0.3336884,-0.07731439,0.14701098,0.0,0.0
-0.024286803,-0.013131912,0.0082378425,0.0,0.0
-0.5953759,0.14137414,-0.16488464,0.0,0.0
0.18180694,-0.15901206,0.09245803,0.0,0.0
0.018620798,-0.20010418,0.22226657,0.0,0.0
0.42265862,-0.1740323,0.037354782,0.0,0.0
0.6974221,-0.23190227,0.0384765,0.0,0.0
-0.6561919,-0.206701,-0.065515846,0.0,0.0
-0.5092402,0.18741845,-0.067116,0.0,0.0
0.25596523,0.040667005,-0.068478465,0.0,0.0
0.030149978,0.13381624,-0.0039108684,0.0,0.0
0.02612748,0.22029364,-0.096937016,0.0,0.0
-0.9369014,-0.037558332,-0.052426953,0.0,0.0
0.2531325,-0.19182476,-0.042022828,0.0,0.0
0.26066545,-0.21548548,0.12568088,0.0,0.0
-0.11760132,-0.18748555,0.07323738,0.0,0.0
-0.5618491,0.008997235,-0.020170439,0.0,0.0
-0.6327012,0.052218556,-0.1307551,0.0,0.0
-0.96491265,-0.10252094,-0.14543149,0.0,0.0
-0.8236164,-0.11156648,-0.019074813,0.0,0.0
-0.8685485,-0.019749118,-0.039870977,0.0,0.0
0.3220197,0.14073093,-0.06099857,0.0,0.0
0.6088238,-0.0051299836,-0.2054054,0.0,0.0
0.23296818,-0.15464054,-0.02761546,0.0,0.0
-0.54219425,-0.16088898,-0.06950294,0.0,0.0
0.40500438,-0.2435077,-0.003341063,0.0,0.0
-0.22728194,-0.014730112,0.05559165,0.0,0.0
0.18252413,0.011000497,0.06802829,0.0,0.0
-0.3394263,-0.069270596,-0.0074543636,0.0,0.0
0.15903938,-0.057989847,-0.14253815,0.0,0.0
-0.8014095,0.17894559,-0.12945683,0.0,0.0
-0.1629474,-0.091270894,-0.15136184,0.0,0.0
0.1161665,0.07011061,-0.043256707,0.0,0.0
-0.80583334,-0.011046734,-0.10140203,0.0,0.0
0.34195942,-0.03452001,0.06175976,0.0,0.0
-0.7320544,-0.008317287,-0.115168445,0.0,0.0
0.681012,-0.1604984,0.102078974,0.0,0.0
0.20367528,0.08512473,-0.10923142,0.0,0.0
-0.043745507,0.021936314,-0.13467316,0.0,0.0
-0.70713705,0.20860562,-0.11085228,0.0,0.0
-0.18583606,-0.13602349,-0.0706179,0.0,0.0
-0.29246417,0.09743158,-0.052387226,0.0,0.0
-0.021414753,-0.016242813,-0.032151394,0.0,0.0
-0.3281709,-0.13164213,0.01958543,0.0,0.0
-0.17417409,-0.16497624,0.086734965,0.0,0.0
0.4755977,0.244568,-0.07944996,0.0,0.0
-0.6735444,-0.19032374,-0.027905844,0.0,0.0
0.4695843,-0.10480419,-0.21208619,0.0,0.0
-0.06425318,0.20995013,-0.015885958,0.0,0.0
-0.21521898,-0.24974091,0.06492031,0.0,0.0
0.19624811,-0.2290111,-0.014248114,0.0,0.0
0.6487299,-0.09736379,0.23969975,0.0,0.0
0.20730332,0.32332423,-0.12522477,0.0,0.0
0.57929254,-0.007834477,-0.14990653,0.0,0.0
-0.18917924,0.021882275,-0.09199136,0.0,0.0
0.22015905,0.03201171,0.011748464,0.0,0.0
-0.27531454,0.19938116,-0.07246481,0.0,0.0
-0.18955462,0.10464456,0.036143597,0.0,0.0
0.20511654,-0.054342117,0.09827326,0.0,0.0
-0.5394706,0.19354233,-0.015861498,0.0,0.0
0.026524108,0.17718917,-0.06524801,0.0,0.0
-0.13564715,-0.025004916,-0.16109125,0.0,0.0
-0.8379074,-0.23252001,0.16425313,0.0,0.0
-0.20768714,-0.17218323,0.11092224,0.0,0.0
0.42635858,-0.045836497,0.054653987,0.0,0.0
-0.39020228,-0.26016757,0.039143752,0.0,0.0
0.025796985,-0.24521191,-0.115227155,0.0,0.0
-0.59750533,-0.27124113,-0.0010785188,0.0,0.0
-0.5470378,-0.14728586,-0.09587877,0.0,0.0
-0.37371284,0.075788,-0.022206966,0.0,0.0
-0.563006,0.003219451,-0.14212736,0.0,0.0
-0.15914421,0.11647972,-0.09069227,0.0,0.0
-0.36419785,0.12011943,-0.094117925,0.0,0.0
-0.6387888,-0.16268492,-0.05778342,0.0,0.0
-0.01636588,0.22650166,-0.10024615,0.0,0.0
0.6661232,-0.17269605,0.04377043,0.0,0.0
-0.14539133,0.009653782,-0.16635069,0.0,0.0
0.39617392,-0.15966828,0.23849243,0.0,0.0
-0.11192476,-0.20115069,-0.05300631,0.0,0.0
0.09563702,-0.19493352,-0.039601833,0.0,0.0
0.365873,0.26737568,0.10565679,0.0,0.0
0.30062085,-0.15084356,0.21458387,0.0,0.0
0.48578718,-0.115893446,0.10758436,0.0,0.0
0.83644956,0.18999109,-0.104664646,0.0,0.0
0.8322621,-0.16946535,0.005140575,0.0,0.0
-0.48742014,0.04678859,-0.076341555,0.0,0.0
0.39343572,-0.122663476,0.28211975,0.0,0.0
-0.3044262,-0.031736564,0.1605126,0.0,0.0
0.5729845,-0.16500004,0.13804482,0.0,0.0
