x,y,z,f,scl1
-0.64121425,0.20446381,0.08952777,0.0,0.0
0.34784475,-0.099316284,0.12824337,0.0,0.0
-0.7760343,-0.023306577,-0.08539817,0.0,0.0
0.70455396,-0.15209094,-0.027349787,0.0,0.0
0.026364736,-0.06853503,-0.017367888,0.0,0.0
-0.2684987,-0.060053147,-0.023427125,0.0,0.0
0.5080115,0.44348314,-0.16421147,0.0,0.0
0.111563735,-0.20055701,0.1456751,0.0,0.0
0.57537746,-0.17924866,0.016075905,0.0,0.0
0.6872426,-0.109687015,-0.074447826,0.0,0.0
-0.4543726,0.025002053,-0.06890089,0.0,0.0
-0.5710953,-0.26667404,-0.08830267,0.0,0.0
0.1135894,0.13573828,-0.19052759,0.0,0.0
-0.22499761,-0.094732255,0.18686476,0.0,0.0
-0.16783649,0.10384595,-0.040510252,0.0,0.0
0.4126679,-0.1299831,-0.05013903,0.0,0.0
0.029294591,-0.07845667,-0.0930522,0.0,0.0
-0.22720034,-0.064489126,0.14836897,0.0,0.0
0.037323482,0.095476635,-0.06688945,0.0,0.0
0.628358,0.0006715584,-0.03982902,0.0,0.0
-0.5283181,0.01844685,0.003805258,0.0,0.0
0.1955014,-0.1295522,-0.043341003,0.0,0.0
-0.84217423,-0.07673118,0.0141395815,0.0,0.0
0.54553896,0.023980625,-0.11635733,0.0,0.0
-0.16026333,-0.028640522,-0.0405155,0.0,0.0
0.38416323,0.037306264,-0.04657028,0.0,0.0
0.24890837,-0.13942945,0.20773356,0.0,0.0
-0.28689998,-0.26371428,0.41639063,0.0,0.0
0.7150737,0.006120207,-0.07386889,0.0,0.0
0.36022568,0.0643127,-0.14074555,0.0,0.0
0.45939943,-1.4214893e-06,-0.014934834,0.0,0.0
-0.52755165,-0.04927045,0.0015273774,0.0,0.0
-0.12250713,-0.16920723,0.15598623,0.0,0.0
-0.21852031,-0.29090446,-0.015145724,0.0,0.0
-0.79351383,-0.19133686,0.088905625,0.0,0.0
-0.4520113,-0.044909324,0.15855722,0.0,0.0
-0.51181436,-0.20688121,0.1609138,0.0,0.0
0.78819245,-0.10545673,0.11828867,0.0,0.0
-0.56819224,0.10290872,-0.103103705,0.0,0.0
-0.48475936,-0.032818917,0.0017925029,0.0,0.0
0.29496405,-0.16316715,-0.23041815,0.0,0.0
0.15797788,-0.07039645,0.054537296,0.0,0.0
0.5607843,0.12401741,-0.12445627,0.0,0.0
-0.29469234,0.046436545,-0.1323242,0.0,0.0
0.5036481,0.08907154,-0.09635433,0.0,0.0
0.027232738,-0.1442695,-0.061413553,0.0,0.0
-0.2038416,-0.1498458,0.17226303,0.0,0.0
0.35888305,-0.20702313,0.11065927,0.0,0.0
0.28437337,-0.064684354,0.007834708,0.0,0.0
-0.3307549,-0.039131124,-0.04136709,0.0,0.0
-0.33381307,0.077312015,-0.14482817,0.0,0.0
-0.3792359,-0.15330966,0.07924288,0.0,0.0
-0.6151752,-0.19531845,-0.100681044,0.0,0.0
-0.32575467,0.19498558,-0.025398541,0.0,0.0
-0.37952414,0.23249798,-0.07887342,0.0,0.0
0.06986288,-0.06198609,0.04540448,0.0,0.0
0.5099029,-0.121085025,0.10641491,0.0,0.0
0.5026918,0.015468647,-0.046829388,0.0,0.0
0.19588904,0.23377888,-0.117959246,0.0,0.0
-0.11964479,-0.1970794,0.24439555,0.0,0.0
0.2903271,-0.10520653,0.059456296,0.0,0.0
-0.7062762,0.03253718,-0.07872655,0.0,0.0
0.04045642,0.081967585,-0.13321853,0.0,0.0
-0.5800459,-0.024779767,-0.13131502,0.0,0.0
-0.35388497,-0.14287224,0.09020278,0.0,0.0
-0.14839794,-0.15461367,-0.06902373,0.0,0.0
0.5434058,0.035455775,-0.09471675,0.0,0.0
0.6240244,0.3410253,-0.06391595,0.0,0.0
0.33248085,0.108838,-0.05196646,0.0,0.0
0.40772223,-0.22214599,-0.029106935,0.0,0.0
-0.0650469,-0.14474094,0.14371824,0.0,0.0
0.38337943,-0.0062397667,0.020665253,0.0,0.0
-0.52755195,-0.18576133,0.22574815,0.0,0.0
0.68873256,-0.08715575,-0.11864056,0.0,0.0
0.45906523,0.07749347,-0.12675916,0.0,0.0
0.58136296,0.06846361,-0.0172003,0.0,0.0
-0.39795804,0.024869002,-0.12629691,0.0,0.0
0.57137674,-0.14926885,0.010474653,0.0,0.0
0.6404347,0.0077155936,-0.05346113,0.0,0.0
0.21521774,-0.16146211,0.17692325,0.0,0.0
-0.71083546,-0.1965524,0.11567939,0.0,0.0
-0.2544173,-0.18200956,-0.07093403,0.0,0.0
0.0058132894,-0.24673885,0.16294546,0.0,0.0
-0.23507367,0.11918331,-0.022448527,0.0,0.0
-0.06579826,0.10411937,-0.09939118,0.0,0.0
-0.8701907,0.009367372,-0.13995105,0.0,0.0
0.35476202,-0.15769318,0.21565297,0.0,0.0
-0.649779,0.009088452,-0.047512144,0.0,0.0
0.7001242,-0.029998792,0.030483935,0.0,0.0
-0.670747,0.115195036,-0.09223816,0.0,0.0
-0.7779123,-0.119012855,-0.085702516,0.0,0.0
-0.052816715,-0.10508386,0.15636663,0.0,0.0
0.47565758,-0.0017854199,0.09700977,0.0,0.0
0.40618894,-0.01110738,0.040898904,0.0,0.0
0.24791317,-0.03895848,-0.07424687,0.0,0.0
0.86217886,0.12647411,-0.1027163,0.0,0.0
0.11193568,-0.10832689,0.018539382,0.0,0.0
0.93349755,0.47676933,-0.16070926,0.0,0.0
0.61844504,0.029273305,-0.059968393,0.0,0.0
0.2741348,-0.04954445,0.0056771105,0.0,0.0
0.009261999,-0.23008846,0.09618501,0.0,0.0
-0.74260616,-0.15761739,-0.09439497,0.0,0.0
-0.36605152,-0.10177321,0.042825043,0.0,0.0
0.22468549,-0.0036701437,-0.11575857,0.0,0.0
0.6642294,0.042129762,-0.15497379,0.0,0.0
0.126803,0.03293633,-0.11580377,0.0,0.0
0.24259116,-0.062319018,0.016854614,0.0,0.0
-0.0312803,-0.08427206,0.107754566,0.0,0.0
0.8693204,-0.048854914,-0.08845321,0.0,0.0
0.32040635,-0.16559948,0.13724695,0.0,0.0
0.22400883,-0.04773249,-0.010456131,0.0,0.0
-0.64833575,-0.10392475,0.05611065,0.0,0.0
0.184138,-0.14878725,-0.10084221,0.0,0.0
0.7005089,-0.13569982,0.11139096,0.0,0.0
-0.5525148,0.090293206,-0.07491074,0.0,0.0
-0.2565525,0.09503805,-0.10451671,0.0,0.0
0.19584692,-0.102622345,-0.015926464,0.0,0.0
-0.18511112,-0.15602337,-0.09325362,0.0,0.0
0.07242459,-0.14915808,-0.103541486,0.0,0.0
0.47814578,0.25836116,-0.05299315,0.0,0.0
0.56861866,0.07833913,-0.005988691,0.0,0.0
0.58169895,0.027785832,0.026030457,0.0,0.0
0.25273055,0.26948425,-0.003274341,0.0,0.0
-0.878038,-0.04984924,-0.10729067,0.0,0.0
0.38918507,0.14307827,-0.14010175,0.0,0.0
0.2078255,-0.15778074,-0.09735273,0.0,0.0
-0.30698517,0.08268831,-0.10061089,0.0,0.0
0.39597926,-0.18396582,0.20672752,0.0,0.0
-0.6038736,-0.013774428,-0.14251618,0.0,0.0
-0.508521,0.01951326,-0.12492487,0.0,0.0
0.12558092,0.3362915,-0.10587253,0.0,0.0
-0.5586926,-0.14629734,-0.19204809,0.0,0.0
0.74973965,-0.018725429,-0.0028813814,0.0,0.0
0.39482042,0.019282239,-0.20549808,0.0,0.0
0.060225304,-0.14968461,0.0011316894,0.0,0.0
-0.5030024,-0.08142913,-0.07976814,0.0,0.0
0.81483877,0.5385323,0.024545103,0.0,0.0
-0.17934285,-0.013499707,-0.14514178,0.0,0.0
-0.44305262,-0.2504095,0.081678905,0.0,0.0
-0.44510773,0.109597296,-0.11135819,0.0,0.0
0.92929876,-0.083725534,0.0070292735,0.0,0.0
0.19269638,0.00024615542,-0.098382585,0.0,0.0
-0.4022274,0.36940223,-0.021840172,0.0,0.0
-0.50356865,-0.007790074,-0.050806917,0.0,0.0
0.076311626,-0.0010403808,-0.077094145,0.0,0.0
0.04371091,0.070734836,-0.12753958,0.0,0.0
0.21887846,0.051885318,-0.033593863,0.0,0.0
-0.25259498,-0.08282083,0.013088369,0.0,0.0
0.6355165,-0.069135346,-0.108149156,0.0,0.0
-0.09153269,-0.23089176,0.27962476,0.0,0.0
0.4704534,0.07962682,-0.085482605,0.0,0.0
0.1668127,0.016372778,-0.13650651,0.0,0.0
0.3582598,-0.026142351,-0.19298442,0.0,0.0
-0.6493788,-0.30791783,0.23678191,0.0,0.0
-0.116074756,0.033146884,-0.074062236,0.0,0.0
-0.60782474,-0.03583932,-0.054074485,0.0,0.0
-0.43275025,0.097021446,-0.03136957,0.0,0.0
-0.22890995,-0.09162756,0.032052062,0.0,0.0
-0.52660805,-0.08966731,0.0114967115,0.0,0.0
-0.654154,-0.0030644047,-0.040359482,0.0,0.0
-0.60221946,-0.18897611,0.19388601,0.0,0.0
-0.042066682,-0.02120888,-0.113140285,0.0,0.0
0.1862856,0.21951778,-0.12091061,0.0,0.0
-0.18304673,-0.11321611,0.08894954,0.0,0.0
-0.13409293,0.034303743,-0.11002032,0.0,0.0
-0.58752894,-0.22720754,0.19108531,0.0,0.0
0.45088217,0.24992219,-0.013227923,0.0,0.0
-0.008070145,0.05500697,-0.07816428,0.0,0.0
0.10824559,0.0144647,0.017481526,0.0,0.0
0.34503648,0.3393023,-0.04409369,0.0,0.0
-0.08071786,-0.21105452,-0.078478195,0.0,0.0
-0.6830726,0.044843383,-0.030908434,0.0,0.0
0.7519913,-0.022639506,-0.13322893,0.0,0.0
0.43566254,-0.17407906,-0.10599463,0.0,0.0
0.793149,-0.121571675,-0.0046187392,0.0,0.0
0.18637632,-0.09588246,0.04709882,0.0,0.0
-0.7427406,-0.20633717,0.3568856,0.0,0.0
-0.75346243,-0.22203618,0.110860676,0.0,0.0
-0.00042814697,0.14052281,-0.107156254,0.0,0.0
0.34971586,-0.010213815,0.017244989,0.0,0.0
-0.18194753,-0.08586667,-0.001860226,0.0,0.0
-0.2816273,0.022872422,-0.046121795,0.0,0.0
-0.46481773,-0.09333488,0.19397697,0.0,0.0
0.6388602,0.18082863,-0.12837717,0.0,0.0
0.3741626,-0.028441489,-0.19714741,0.0,0.0
0.34786367,0.013859803,-0.13177307,0.0,0.0
0.49644572,0.06014396,-0.03258621,0.0,0.0
0.5440676,0.07290105,-0.1318142,0.0,0.0
0.3874788,0.06307404,-0.0698549,0.0,0.0
0.40611556,-0.045292243,-0.035371963,0.0,0.0
-0.6264071,-0.06904242,-0.12592621,0.0,0.0
-0.7629951,-0.04661808,-0.18331066,0.0,0.0
0.33435366,-0.15912434,0.03101694,0.0,0.0
0.4914189,-0.11367764,0.35914868,0.0,0.0
0.4528781,0.18233803,-0.029725827,0.0,0.0
-0.20688999,0.12356133,-0.11868347,0.0,0.0
-0.22675362,-0.09555261,0.033510946,0.0,0.0
-0.08857377,0.07761664,-0.15570426,0.0,0.0
2.827034e-05,-0.22788504,0.15632173,0.0,0.0
-0.08927458,-0.0066285627,-0.093949884,0.0,0.0
0.13086191,-0.07392346,0.15682402,0.0,0.0
-0.37614238,0.21409328,-0.099882916,0.0,0.0
0.3001191,0.020020526,-0.031854928,0.0,0.0
0.10977743,-0.24534337,0.04246442,0.0,0.0
-0.09407707,-0.037172396,0.08676265,0.0,0.0
0.29919365,0.330176,-0.08089141,0.0,0.0
-0.123981915,-0.17599808,0.16588664,0.0,0.0
0.18667442,0.22738633,-0.024562664,0.0,0.0
-0.6005916,-0.24682534,0.015865268,0.0,0.0
-0.6482002,-0.1738326,-0.090647735,0.0,0.0
-0.28322068,-0.18361062,-0.030178774,0.0,0.0
-0.08188502,-0.051425103,0.08336676,0.0,0.0
-0.6269796,-0.07383697,0.18947609,0.0,0.0
0.87338626,-0.1316653,-0.08122163,0.0,0.0
0.39379254,0.35373166,-0.06664967,0.0,0.0
0.14234307,0.10920758,-0.10651669,0.0,0.0
0.34189984,-0.08169839,0.033941016,0.0,0.0
-0.48661116,-0.1560386,0.018237956,0.0,0.0
-0.58243036,-0.26980338,0.11168933,0.0,0.0
-0.6797118,-0.17148182,0.12482722,0.0,0.0
0.18011355,-0.2532518,0.1597206,0.0,0.0
0.4572316,-0.06072767,-0.04153464,0.0,0.0
0.12054815,0.024997434,0.024233952,0.0,0.0
-0.11339156,-0.105110005,0.23654033,0.0,0.0
-0.17092375,-0.15014708,-0.09353887,0.0,0.0
0.18833095,-0.056311324,0.08118028,0.0,0.0
-0.5401967,-0.004562429,-0.10012799,0.0,0.0
-0.0014226524,0.09165986,-0.11489651,0.0,0.0
-0.35754842,-0.012245071,-0.18896346,0.0,0.0
0.28788784,-0.11002975,-0.03693173,0.0,0.0
0.2719612,-0.07401292,0.13483949,0.0,0.0
-0.71676344,0.02779818,-0.064413294,0.0,0.0
0.06585396,0.16419384,-0.009260986,0.0,0.0
-0.09984669,0.16310899,-0.083626986,0.0,0.0
0.2930699,0.31029359,-0.05397315,0.0,0.0
0.42694116,0.044992574,-0.121289134,0.0,0.0
-0.30026367,0.030269077,0.036365498,0.0,0.0
-0.35853037,-0.213729,0.060285993,0.0,0.0
-0.3859411,0.17952277,-0.021959867,0.0,0.0
-0.34784278,-0.008060239,-0.16573918,0.0,0.0
0.25508204,-0.027407352,-0.1294016,0.0,0.0
0.49269494,-0.19664253,0.1646318,0.0,0.0
-0.059246317,-0.23900592,0.19601579,0.0,0.0
0.1022359,0.022034425,-0.028586913,0.0,0.0
-0.52567255,0.31217867,-0.1296796,0.0,0.0
0.05828245,-0.17270094,0.13465846,0.0,0.0
0.20083384,0.1351995,-0.12454292,0.0,0.0
0.5298811,-0.102212444,-0.0266689,0.0,0.0
-0.16802812,0.0069889184,-0.06274407,0.0,0.0
-0.58573323,0.2871424,-0.122139625,0.0,0.0
0.33668774,0.044991154,-0.16231316,0.0,0.0
-0.67466015,-0.18615957,0.13763142,0.0,0.0
-0.82361484,0.10718123,-0.1308444,0.0,0.0
0.5344291,0.12016108,-0.104804024,0.0,0.0
-0.2799913,0.06270419,-0.040453926,0.0,0.0
0.45637769,-0.15810238,0.18778889,0.0,0.0
-0.59102046,0.20315275,-0.10671934,0.0,0.0
0.61263686,-0.12661475,-0.13531962,0.0,0.0
-0.5169128,0.06386868,-0.010869363,0.0,0.0
0.59470457,-0.052955095,0.06370232,0.0,0.0
0.6934576,-0.1751929,0.096935384,0.0,0.0
0.15727212,0.17522073,-0.049723588,0.0,0.0
0.30891052,0.2364613,-0.014380995,0.0,0.0
0.6040616,0.26864043,-0.02855967,0.0,0.0
-0.09299149,-0.18611316,0.03839132,0.0,0.0
-0.021000002,-0.16518153,0.052138418,0.0,0.0
-0.51716226,-0.055211436,-0.082477234,0.0,0.0
-0.634838,-0.016114522,0.036735576,0.0,0.0
0.017704904,-0.19955812,0.13722822,0.0,0.0
0.18251841,-0.11903727,-0.02783079,0.0,0.0
-0.027170654,-0.1153295,-0.085420914,0.0,0.0
0.3788742,0.02538675,0.001470529,0.0,0.0
-0.1367308,-0.045123536,0.19828393,0.0,0.0
-0.03963429,-0.1303754,0.047911562,0.0,0.0
0.38006994,-0.09669336,0.15116672,0.0,0.0
0.52840805,-0.15864259,-0.0522117,0.0,0.0
0.47177443,-0.025969665,0.029729165,0.0,0.0
0.1782892,-0.10310492,0.0026545068,0.0,0.0
0.1625529,0.38234496,-0.09665137,0.0,0.0
0.6189004,-0.13941179,0.187674,0.0,0.0
-0.5215197,-0.15926012,-0.013448864,0.0,0.0
-0.6139048,-0.28737205,-0.09206605,0.0,0.0
0.5271698,-0.06734741,0.04318041,0.0,0.0
0.37178054,-0.06422889,-0.030977648,0.0,0.0
0.008874243,-0.1258727,0.20152085,0.0,0.0
0.6953984,0.14202137,-0.0823618,0.0,0.0
0.33456254,-0.023924645,-0.017233184,0.0,0.0
-0.09638425,0.08228402,-0.09367006,0.0,0.0
0.35001472,-0.007961507,-0.0036030975,0.0,0.0
0.15966989,0.01084897,-0.04915522,0.0,0.0
0.47489232,-0.25009528,-0.036947753,0.0,0.0
0.29766217,-0.12248301,0.18673007,0.0,0.0
-0.7644897,-0.21214919,0.008984674,0.0,0.0
0.120954864,-0.046827268,0.16515745,0.0,0.0
0.730162,-0.082394354,-0.04061239,0.0,0.0
0.75099117,0.012239057,-0.08645397,0.0,0.0
0.045701213,0.035465736,-0.12733921,0.0,0.0
0.10020895,0.020746049,0.16374792,0.0,0.0
0.6156345,-0.23467791,-0.006108446,0.0,0.0
-0.41111797,0.011215761,-0.10149841,0.0,0.0
-0.84128076,-0.0077837487,-0.110699445,0.0,0.0
-0.45399424,-0.16438791,0.22925946,0.0,0.0
0.32174566,-0.10430904,0.14243658,0.0,0.0
-0.092793144,-0.18064547,0.047776915,0.0,0.0
0.81692076,0.067172796,-0.10583747,0.0,0.0
-0.024966063,-0.047299877,-0.015900169,0.0,0.0
0.19378157,-0.24007988,0.2689025,0.0,0.0
0.02433386,-0.14650658,0.26470867,0.0,0.0
0.844188,0.059042312,-0.10520347,0.0,0.0
0.5162402,-0.036521796,-0.1244938,0.0,0.0
-0.14958173,-0.27661362,0.09235099,0.0,0.0
0.61502314,0.049590815,-0.11118495,0.0,0.0
-0.7394829,0.0162647,0.043642983,0.0,0.0
-0.063308425,0.09882494,-0.09708631,0.0,0.0
0.75809187,-0.12312091,0.091714926,0.0,0.0
-0.3826897,-0.007836492,-0.02895634,0.0,0.0
0.6461791,-0.056432717,-0.1392674,0.0,0.0
0.15643612,-0.14501567,-0.1501861,0.0,0.0
0.51833475,0.06552441,-0.113234654,0.0,0.0
-0.17686631,-0.32366472,0.23485973,0.0,0.0
0.13513729,-0.09971019,-0.13716029,0.0,0.0
0.522919,0.33519,-0.07286071,0.0,0.0
-0.041276116,-0.060948253,-0.037358813,0.0,0.0
0.6037589,0.20761588,-0.021182438,0.0,0.0
-0.071236305,-0.0015079619,0.11471499,0.0,0.0
0.19855212,-0.2951277,-0.10446738,0.0,0.0
0.1645595,-0.17266363,-0.0026582817,0.0,0.0
0.12560195,-0.03324412,0.07035885,0.0,0.0
-0.69755715,-0.011998217,-0.11813371,0.0,0.0
-0.35275447,0.122671865,-0.014376197,0.0,0.0
0.83286375,-0.111238256,-0.019980654,0.0,0.0
-0.968336,0.07506974,-0.09310328,0.0,0.0
0.66244215,-0.08480442,0.11243533,0.0,0.0
0.21695706,-0.15884764,-0.08355949,0.0,0.0
-0.3120564,0.15250148,-0.113991685,0.0,0.0
0.44168195,-0.08402453,0.071993195,0.0,0.0
-0.072993696,-0.115227565,0.18133634,0.0,0.0
-0.46524626,0.0546072,-0.06505945,0.0,0.0
-0.0002954633,0.034872815,-0.04530597,0.0,0.0
0.43911865,0.026006443,-0.114190236,0.0,0.0
-0.17521589,-0.19659394,0.30477062,0.0,0.0
-0.5618574,0.10892829,-0.08464317,0.0,0.0
-0.9431703,-0.050337125,-0.08316237,0.0,0.0
-0.36667967,-0.1888618,0.19983979,0.0,0.0
-0.027351545,-0.108780876,0.05094115,0.0,0.0
0.4583725,-0.14910863,0.16868779,0.0,0.0
-0.4894072,-0.13079835,-0.0768284,0.0,0.0
0.2412843,-0.025779527,0.03958443,0.0,0.0
0.4213549,-0.14350447,0.030346718,0.0,0.0
-0.46126148,-0.17718531,0.31089792,0.0,0.0
-0.43698373,0.116312765,-0.07703647,0.0,0.0
0.054431647,0.12853393,-0.054054007,0.0,0.0
0.1224749,-0.071442924,-0.086114004,0.0,0.0
0.22161083,-0.012077765,-0.13153203,0.0,0.0
0.24802111,-0.03886334,-0.17321439,0.0,0.0
0.6487354,0.35287958,-0.041383803,0.0,0.0
0.25828782,-0.19331518,0.13100709,0.0,0.0
-0.34170184,-0.024791554,-0.025677528,0.0,0.0
0.51032156,-0.17453355,-0.20087865,0.0,0.0
0.60559934,-0.046569426,-0.024896303,0.0,0.0
0.23496561,-0.16394106,0.036508556,0.0,0.0
0.71622896,-0.15643962,-0.041335307,0.0,0.0
-0.015796363,0.34452462,-0.052506074,0.0,0.0
0.27783057,-0.0016544873,-0.01419029,0.0,0.0
0.3253211,0.33872217,-0.029047497,0.0,0.0
0.17995414,0.009846529,-0.12310314,0.0,0.0
0.10351752,0.023224134,-0.13267957,0.0,0.0
-0.33866376,0.17096123,-0.002191184,0.0,0.0
-0.83298236,0.017394327,-0.103170455,0.0,0.0
-0.6585863,0.18541116,-0.10520561,0.0,0.0
-0.050909806,-0.07404283,-0.036682274,0.0,0.0
0.4254442,-0.1462276,0.19334197,0.0,0.0
-0.6563316,-0.05998693,0.020484528,0.0,0.0
-0.1351444,-0.010749259,-0.0073636933,0.0,0.0
-0.83020246,-0.05891935,0.0063326987,0.0,0.0
0.15918583,-0.011089596,-0.056386307,0.0,0.0
-0.39502993,-0.12501074,0.099165514,0.0,0.0
0.1619653,0.09096079,-0.10644647,0.0,0.0
-0.1596475,-0.08651396,-0.11932543,0.0,0.0
0.044018842,-0.08160274,-0.008177256,0.0,0.0
-0.85526925,0.078246705,-0.014940018,0.0,0.0
-0.29849282,-0.13914393,0.12746437,0.0,0.0
0.36225474,0.012371956,0.11039321,0.0,0.0
0.62641716,0.27775216,-0.09433766,0.0,0.0
0.105649896,-0.15834776,-0.053542566,0.0,0.0
-0.0018544188,0.13381645,-0.12287896,0.0,0.0
-0.546745,0.0074742907,0.0066793608,0.0,0.0
0.4424171,-0.05357951,-0.08090076,0.0,0.0
0.74288774,0.100837454,-0.1059866,0.0,0.0
0.025458157,-0.06723279,-0.0062578265,0.0,0.0
-0.70110035,0.2473726,-0.15262732,0.0,0.0
-0.07809516,0.051883508,-0.1251487,0.0,0.0
-0.8234646,0.24897207,-0.11474246,0.0,0.0
-0.890832,-0.15781032,0.0042002844,0.0,0.0
-0.010341789,0.07756363,-0.117051795,0.0,0.0
-0.4543488,-0.058797408,0.013161668,0.0,0.0
-0.1737789,-0.15944071,0.22080722,0.0,0.0
-0.6777628,0.03259094,-0.05359749,0.0,0.0
-0.42069167,-0.07854166,0.06870281,0.0,0.0
0.41024366,-0.27558717,0.3117949,0.0,0.0
0.54637206,0.027299445,-0.017186511,0.0,0.0
0.07748679,-0.012182775,-0.018430557,0.0,0.0
0.28055435,-0.016920699,0.13197675,0.0,0.0
0.19804797,0.039737962,-0.09960088,0.0,0.0
-0.7221415,-0.0041061626,0.013603857,0.0,0.0
-0.2862809,0.054642357,-0.034310933,0.0,0.0
0.19190086,0.21368533,0.018110747,0.0,0.0
-0.37660524,-0.12586734,0.011651351,0.0,0.0
-0.5609758,-0.054683667,-0.040413857,0.0,0.0
0.5860922,0.14311929,-0.10702987,0.0,0.0
-0.84171885,0.011221739,-0.008097306,0.0,0.0
-0.20886034,-0.036407515,0.050301347,0.0,0.0
-0.1356135,-0.07483796,-0.11974048,0.0,0.0
0.19325244,-0.10369111,-0.15548602,0.0,0.0
0.28151897,-0.13590221,0.09791252,0.0,0.0
0.05568937,-0.007558253,0.025154209,0.0,0.0
-0.23397127,-0.12781389,0.034956913,0.0,0.0
0.11905959,-0.050776802,0.20869365,0.0,0.0
0.40777928,0.066233605,-0.16436426,0.0,0.0
0.58339024,-0.10507239,0.028657753,0.0,0.0
0.15087314,0.17968035,-0.004406386,0.0,0.0
0.31716993,0.047129355,-0.10109714,0.0,0.0
0.08603588,0.15547113,-0.10149787,0.0,0.0
-0.11405735,-0.018247632,-0.15195642,0.0,0.0
-0.5522274,0.08199104,-0.09684381,0.0,0.0
0.8603921,-0.17867604,0.035827056,0.0,0.0
-0.73804045,-0.008956065,-0.15809472,0.0,0.0
0.4794726,0.04067418,-0.08088493,0.0,0.0
0.80444586,-0.0010776308,-0.10842101,0.0,0.0
0.5995681,0.07623647,-0.17303179,0.0,0.0
0.38706055,-0.19675422,0.12669693,0.0,0.0
0.20564593,0.0153397685,-0.034827992,0.0,0.0
0.25048766,0.0361433,-0.09629569,0.0,0.0
0.031836424,-0.18243116,0.009461268,0.0,0.0
0.50005436,0.26454487,0.032292496,0.0,0.0
-0.61555904,-0.0075219413,-0.09439477,0.0,0.0
-0.27314016,-0.21630588,0.20278297,0.0,0.0
-0.012798191,0.0868923,0.04223183,0.0,0.0
0.56470144,0.35417223,-0.10793511,0.0,0.0
0.43918672,0.15276656,-0.092689015,0.0,0.0
-0.7457626,-0.059925057,0.02379364,0.0,0.0
-0.33483732,0.22211502,-0.10500254,0.0,0.0
0.47219017,-0.14792478,0.15670493,0.0,0.0
-0.682156,0.021251887,-0.08377157,0.0,0.0
-0.19465624,-0.26448262,0.04103166,0.0,0.0
0.25958422,0.22032876,0.0051830583,0.0,0.0
-0.6849213,0.01125404,-0.08183006,0.0,0.0
0.16303442,-0.2676647,0.14218141,0.0,0.0
-0.08727009,-0.08360181,0.23988025,0.0,0.0
-0.79789305,-0.057840485,-0.08362584,0.0,0.0
0.030338092,0.20873538,-0.01798831,0.0,0.0
0.471294,-0.007623675,-0.10701437,0.0,0.0
0.26902702,-0.03809515,-0.04061357,0.0,0.0
0.6329676,-0.027967554,0.09552031,0.0,0.0
0.05149323,-0.16307919,0.03970921,0.0,0.0
-0.18559325,-0.10457862,-0.15082872,0.0,0.0
-0.18291251,0.04434196,-0.112452514,0.0,0.0
-0.36482537,0.0061704516,-0.06866942,0.0,0.0
0.44710603,-0.20682251,0.06707599,0.0,0.0
-0.69266784,-0.04189967,-0.109282754,0.0,0.0
0.6549293,-0.1999042,0.122132674,0.0,0.0
0.12739599,-0.10608102,0.33470863,0.0,0.0
-0.19429787,-0.17039339,0.12542996,0.0,0.0
0.52486604,-0.15653563,0.13301428,0.0,0.0
0.045179833,0.050676864,-0.06514324,0.0,0.0
0.20720851,-0.16659911,0.11575131,0.0,0.0
-0.014235588,-0.04480711,-0.023730163,0.0,0.0
0.3135439,-0.097246006,0.10546414,0.0,0.0
0.7264995,0.02804509,-0.10802214,0.0,0.0
-0.29431382,-0.09602767,0.029834228,0.0,0.0
-0.86843497,-0.013548626,-0.104353294,0.0,0.0
-0.04939029,0.12392351,-0.025319038,0.0,0.0
-0.52387416,-0.22606722,0.07913589,0.0,0.0
-0.5543884,0.20876229,-0.09722382,0.0,0.0
-0.10222928,-0.017287007,-0.11848724,0.0,0.0
-0.15110835,-0.04232256,-0.014248413,0.0,0.0
-0.13227737,0.26835406,-0.115878135,0.0,0.0
0.10877279,0.23174521,-0.11902054,0.0,0.0
-0.036232635,-0.088797435,0.023715734,0.0,0.0
-0.21839757,0.023369463,-0.2008985,0.0,0.0
0.70529485,-0.05316932,-0.104650065,0.0,0.0
0.32381508,0.4790501,-0.09868278,0.0,0.0
-0.6413048,-0.11327298,0.0140512725,0.0,0.0
-0.45541555,0.06202242,-0.12812284,0.0,0.0
0.67864513,-0.119202934,-0.03780106,0.0,0.0
-0.13689822,-0.24380566,0.06896634,0.0,0.0
-0.74443644,-0.05457189,-0.12842754,0.0,0.0
0.31687915,-0.08500049,0.0891528,0.0,0.0
-0.48959374,-0.31621566,0.2285533,0.0,0.0
-0.08747418,0.016819729,0.11307387,0.0,0.0
0.31722897,-0.09270328,0.12219996,0.0,0.0
-0.07616877,0.007160806,-0.04578034,0.0,0.0
0.53427386,-0.19034672,0.11023925,0.0,0.0
0.23599078,-0.06354781,0.12010722,0.0,0.0
0.0767134,0.1271582,0.006020805,0.0,0.0
-0.6137088,0.06596421,-0.075385556,0.0,0.0
-0.9578815,0.41108587,0.04960358,0.0,0.0
0.356192,-0.16373193,-0.03720527,0.0,0.0
-0.5425153,-0.1385858,-0.11329247,0.0,0.0
0.35703567,0.12649924,-0.09080988,0.0,0.0
-0.31746855,-0.023046637,-0.06760765,0.0,0.0
-0.21941039,-0.11492358,-0.09116622,0.0,0.0
-0.5189541,0.34439367,-0.08101893,0.0,0.0
-0.73591024,-0.030303212,-0.123170696,0.0,0.0
0.50616956,-0.12394944,-0.06820106,0.0,0.0
0.23268944,-0.15486331,-0.06701282,0.0,0.0
0.37682196,-0.11453148,-0.032513216,0.0,0.0
-0.66938937,0.03388119,-0.13669662,0.0,0.0
-0.20810758,-0.1019553,0.06792666,0.0,0.0
0.57901144,0.07359194,-0.09071797,0.0,0.0
-0.66721994,-0.15819521,0.11450109,0.0,0.0
0.41530237,-0.08402612,0.114672095,0.0,0.0
0.23653334,-0.19895412,0.00646135,0.0,0.0
-0.1496101,-0.14646165,0.111703485,0.0,0.0
0.25719726,0.18601252,-0.12167506,0.0,0.0
-0.18513156,-0.21047917,0.035863318,0.0,0.0
-0.046279192,0.04864244,-0.15196158,0.0,0.0
0.16122143,0.08029044,-0.09799141,0.0,0.0
0.49269167,-0.047840647,-0.08779868,0.0,0.0
0.63471055,0.22541323,-0.023431052,0.0,0.0
0.5378539,-0.13187128,-0.072888635,0.0,0.0
0.12425427,0.09582553,-0.11780805,0.0,0.0
0.60841423,0.005627951,-0.07166729,0.0,0.0
0.12543835,-0.015693719,-0.11904443,0.0,0.0
-0.95916086,0.076816306,0.068689466,0.0,0.0
0.993245,-0.06672017,0.26927635,0.0,0.0
0.49927577,-0.10372203,0.12585844,0.0,0.0
-0.25567237,-0.14816621,0.040371455,0.0,0.0
0.17862898,0.06777417,-0.068433315,0.0,0.0
0.3771003,0.0145333,-0.083745226,0.0,0.0
0.32575485,-0.18433154,0.0835387,0.0,0.0
0.6532128,-0.06241192,0.10131439,0.0,0.0
0.0074710017,-0.060927145,-0.12363431,0.0,0.0
-0.027366195,-0.17774038,0.3095179,0.0,0.0
0.40853742,-0.12386474,-0.1380201,0.0,0.0
0.240512,-0.2650963,0.14032538,0.0,0.0
-0.04615455,-0.12969469,-0.021476768,0.0,0.0
-0.6661038,-0.3374659,0.064745,0.0,0.0
-0.4092727,0.020795876,-0.02121223,0.0,0.0
0.73693764,0.08327677,-0.09856058,0.0,0.0
-0.10806326,0.06663648,-0.11583028,0.0,0.0
0.49419162,0.18564114,-0.06252501,0.0,0.0
-0.30207443,-0.15040316,-0.10512893,0.0,0.0
0.08930727,0.032810364,-0.06425101,0.0,0.0
-0.1547696,-0.21333563,0.17306134,0.0,0.0
0.42743373,-0.068562366,-0.11233369,0.0,0.0
0.713428,-0.16017283,-0.05908335,0.0,0.0
-0.1043731,0.06023048,-0.10800306,0.0,0.0
0.06929721,-0.09604109,0.15539329,0.0,0.0
0.4442324,0.038293954,-0.082190186,0.0,0.0
-0.22593966,-0.28610536,0.0856715,0.0,0.0
-0.25822622,0.027794572,-0.09501749,0.0,0.0
0.009373073,-0.21925774,0.27949947,0.0,0.0
0.6907767,-0.19696024,-0.012276838,0.0,0.0
0.11910347,0.0026236612,-0.059934795,0.0,0.0
-0.54893553,-0.12035449,0.024259718,0.0,0.0
0.6198897,0.25306427,-0.08944786,0.0,0.0
-0.31302232,-0.033105083,-0.028850242,0.0,0.0
0.33775482,-0.0604215,0.14733261,0.0,0.0
-0.5693581,-0.11419024,-0.16752636,0.0,0.0
0.7781077,-0.121795416,-0.065306656,0.0,0.0
-0.10957635,-0.13535663,0.11362168,0.0,0.0
-0.2181551,-0.02482943,-0.031095766,0.0,0.0
-0.25788912,0.11949794,-0.07502511,0.0,0.0
-0.019434594,0.012559088,-0.04940493,0.0,0.0
0.071784236,0.053295724,0.014548361,0.0,0.0
0.57659626,0.10431837,0.003998379,0.0,0.0
0.33594316,-0.019471498,0.007578641,0.0,0.0
0.12321161,-0.23376897,0.2650411,0.0,0.0
0.12210958,0.3288746,-0.075718656,0.0,0.0
0.10448751,0.10428051,-0.1067038,0.0,0.0
-0.6727582,-0.034342162,-0.048229095,0.0,0.0
0.43910497,0.16104372,-0.11083885,0.0,0.0
0.29213926,0.18052281,-0.07494317,0.0,0.0
0.1726542,-0.17995422,0.0010059499,0.0,0.0
0.24638154,-0.06478555,0.041447174,0.0,0.0
-0.3812708,-0.012520145,0.0056514335,0.0,0.0
0.22441399,-0.08457274,-0.12352935,0.0,0.0
-0.44969478,-0.23578513,0.18409915,0.0,0.0
-0.3194609,-0.026266687,-0.042904034,0.0,0.0
0.115294866,-0.054101728,-0.16113187,0.0,0.0
-0.62897074,-0.15328985,0.08102821,0.0,0.0
-0.47216165,-0.24869259,-0.07534116,0.0,0.0
0.24717186,-0.026154997,-0.15493345,0.0,0.0
0.38492122,-0.2848311,-0.13358155,0.0,0.0
0.32798913,-0.08915398,-0.1300384,0.0,0.0
-0.64472044,-0.06835002,0.14596626,0.0,0.0
0.251939,-0.25076854,0.12849572,0.0,0.0
-0.44122845,-0.260544,0.052443918,0.0,0.0
0.082189515,-0.19067307,0.31935725,0.0,0.0
0.7566638,0.052601956,-0.07898719,0.0,0.0
-0.26421106,-0.075566135,-0.042590342,0.0,0.0
0.17487888,-0.010516808,0.0031520573,0.0,0.0
0.50083387,0.31482705,-0.06200194,0.0,0.0
-0.6974958,-0.062327705,-0.0011617261,0.0,0.0
0.0881191,0.029825602,0.039072197,0.0,0.0
0.15424559,-0.10858695,-0.113473944,0.0,0.0
0.43938506,0.4702684,-0.09881994,0.0,0.0
0.050825678,-0.12922734,0.10398044,0.0,0.0
0.3929186,-0.14350544,-0.10050558,0.0,0.0
-0.7033416,-0.023776814,0.008539622,0.0,0.0
0.1654645,-0.22384654,0.007059079,0.0,0.0
0.3345238,0.09665889,-0.052505966,0.0,0.0
-0.2519801,-0.13588502,0.13427952,0.0,0.0
0.21287529,0.11525703,-0.09053265,0.0,0.0
-0.7417291,-0.03154252,0.09230149,0.0,0.0
0.7283396,-0.04358271,-0.10475523,0.0,0.0
0.24304096,-0.18944071,0.16145273,0.0,0.0
0.17126545,-0.11541457,0.11860711,0.0,0.0
0.8420511,0.07283959,-0.12261902,0.0,0.0
-0.44617596,-0.080471754,0.11119404,0.0,0.0
-0.028582187,0.20057324,-0.031038325,0.0,0.0
0.49500167,-0.051303472,0.22578257,0.0,0.0
0.7112948,0.08011884,-0.17501725,0.0,0.0
0.2535229,0.12641625,6.048451e-05,0.0,0.0
0.055729378,-0.08832739,-0.16935311,0.0,0.0
-0.44212165,0.21486308,-0.12623592,0.0,0.0
0.19435804,0.06280012,-0.13462879,0.0,0.0
0.6076021,0.2074973,-0.109540485,0.0,0.0
-0.28920308,0.23565562,-0.13820808,0.0,0.0
0.5268914,-0.018534373,-0.13855848,0.0,0.0
-0.56437814,-0.26275703,-0.09931322,0.0,0.0
0.73482174,0.20995331,-0.1031739,0.0,0.0
-0.4361108,-0.1285888,-0.026912944,0.0,0.0
-0.04557491,-0.15026715,0.12265443,0.0,0.0
-0.6388027,0.026725153,-0.06441449,0.0,0.0
0.49694726,-0.09045991,-0.059287876,0.0,0.0
0.40634957,-0.05941221,0.035177495,0.0,0.0
-0.070144095,0.0039911265,0.05744932,0.0,0.0
-0.19537711,-0.11505368,-0.0116503,0.0,0.0
-0.20450588,-0.14163402,0.09881572,0.0,0.0
-0.4215706,-0.043157447,0.07902056,0.0,0.0
-0.60287845,0.049762655,-0.11864494,0.0,0.0
-0.42616567,-0.24106993,0.08683389,0.0,0.0
-0.8140386,-0.016639031,-0.03461313,0.0,0.0
0.120739274,-0.080771334,0.16098967,0.0,0.0
0.105595306,-0.049340956,-0.027586037,0.0,0.0
0.3782822,0.091920175,-0.09483539,0.0,0.0
0.17672424,-0.16337925,0.10715829,0.0,0.0
0.67323655,-0.1307022,0.11749342,0.0,0.0
0.017899478,-0.01843139,-0.059088193,0.0,0.0
0.3926253,-0.18835852,0.06081005,0.0,0.0
-0.78436506,-0.047567118,-0.028066289,0.0,0.0
-0.63672,0.019864395,-0.047467727,0.0,0.0
-0.36726654,0.2798855,-0.1281076,0.0,0.0
0.4567227,0.3956453,-0.08118791,0.0,0.0
-0.30144897,-0.0004402827,-0.1263769,0.0,0.0
0.12206886,-0.05620239,-0.14872223,0.0,0.0
-0.48813298,0.26288536,-0.07348868,0.0,0.0
0.72086895,0.1893723,-0.14463559,0.0,0.0
0.033431523,-0.1484717,0.24209562,0.0,0.0
-0.32217616,0.020724418,-0.031232335,0.0,0.0
-0.0040991767,-0.20915459,0.28757888,0.0,0.0
0.390004,0.028422512,0.009554949,0.0,0.0
0.21331467,-0.07899862,-0.069774844,0.0,0.0
0.6075052,0.044654004,-0.07795353,0.0,0.0
0.060670562,-0.26216623,-0.029776445,0.0,0.0
-0.003938668,0.17122374,0.07668172,0.0,0.0
0.6307032,0.023070933,0.116297014,0.0,0.0
-0.6776285,-0.063478656,-0.091146275,0.0,0.0
0.020762207,0.042817328,-0.045883704,0.0,0.0
-0.77926624,-0.25148347,-0.052692756,0.0,0.0
-0.4627172,0.22717102,-0.10320311,0.0,0.0
-0.099754594,0.17556772,-0.14915922,0.0,0.0
0.8244849,-0.18152657,-0.030348297,0.0,0.0
-0.27220237,0.05470734,-0.020055637,0.0,0.0
-0.52075,0.005216714,-0.060975526,0.0,0.0
0.1489177,-0.13815676,-0.061870135,0.0,0.0
-0.11064624,-0.08088205,0.027317612,0.0,0.0
-0.75327367,-0.02209376,-0.0102880085,0.0,0.0
0.39324114,-0.21215665,0.021598486,0.0,0.0
0.72640127,-0.13733974,0.15938129,0.0,0.0
0.27468204,0.118741915,-0.10357667,0.0,0.0
-0.7684358,-0.08437605,-0.0026294999,0.0,0.0
0.11312426,-0.16317633,0.2899859,0.0,0.0
0.41413957,0.010712227,-0.08475235,0.0,0.0
-0.09267107,0.18088636,-0.055925936,0.0,0.0
-0.76918024,-0.03108143,-0.101802506,0.0,0.0
-0.11092491,-0.075073235,-0.13334471,0.0,0.0
-0.33740094,0.12273563,-0.118971765,0.0,0.0
-0.45408428,-0.17233638,0.03429909,0.0,0.0
-0.74847174,-0.0741443,-0.12550677,0.0,0.0
0.5023165,0.4237789,-0.044521384,0.0,0.0
-0.49750423,-0.101495944,0.045420524,0.0,0.0
-0.08123374,0.074727505,-0.020716306,0.0,0.0
0.6258228,-0.3025852,0.020228004,0.0,0.0
0.038243946,-0.00116548,0.056784518,0.0,0.0
-0.17011002,-0.12363034,-0.020514326,0.0,0.0
-0.34407634,-0.030054891,-0.08269186,0.0,0.0
-0.12338002,-0.14340559,-0.07800916,0.0,0.0
-0.30848908,-0.2479983,0.09336237,0.0,0.0
0.22051446,-0.13941465,0.08267689,0.0,0.0
-0.86342126,0.049083572,-0.10740415,0.0,0.0
0.7509484,-0.14705284,0.13383089,0.0,0.0
-0.5601129,-0.21467803,0.2488232,0.0,0.0
-0.7358904,-0.3478682,-0.22453143,0.0,0.0
0.2698769,-0.143971,0.1839569,0.0,0.0
-0.1993835,-0.0993035,0.16554675,0.0,0.0
0.6585334,0.018336086,-0.08841695,0.0,0.0
-0.4545519,-0.21026267,-0.061565284,0.0,0.0
0.00014174235,-0.19480161,0.10188916,0.0,0.0
-0.8499167,0.08940104,-0.13628674,0.0,0.0
-0.43907583,0.051416513,0.010788457,0.0,0.0
-0.36917937,-0.043397155,0.06622137,0.0,0.0
0.5955555,-0.00091356947,-0.015225822,0.0,0.0
0.34359998,0.015676398,0.12581658,0.0,0.0
0.46941423,0.061384365,0.046990305,0.0,0.0
-0.387764,-0.14051497,0.02847245,0.0,0.0
0.7860769,-0.11163731,-0.0646742,0.0,0.0
0.7416378,-0.1412908,0.10518003,0.0,0.0
-0.105876096,0.19262832,-0.08897787,0.0,0.0
-0.4519686,-0.12954803,0.1030466,0.0,0.0
-0.85432065,0.20554727,-0.03452978,0.0,0.0
-0.10792747,-0.16132581,0.031057423,0.0,0.0
-0.3115583,0.09757656,-0.02127027,0.0,0.0
-0.7629243,-0.09939283,-0.15767317,0.0,0.0
0.19333301,-0.10153046,-0.07437184,0.0,0.0
0.6042832,-0.15437506,-0.03931312,0.0,0.0
0.64785576,-0.113480784,0.14469044,0.0,0.0
0.90850276,0.06027265,-0.03332584,0.0,0.0
0.31018046,0.0034552088,-0.03561272,0.0,0.0
0.10866763,-0.1393544,-0.15954334,0.0,0.0
-0.12538148,-0.110945575,-0.048652735,0.0,0.0
0.29911914,-0.13652563,0.19840433,0.0,0.0
0.35140687,-0.15108903,-0.0063056457,0.0,0.0
-0.006594319,0.19567506,-0.10008516,0.0,0.0
0.31554207,0.47905138,-0.075382054,0.0,0.0
-0.7088255,0.19886851,-0.14058952,0.0,0.0
-0.43847594,-0.17715962,-0.056186963,0.0,0.0
0.5938884,-0.06702198,0.07620284,0.0,0.0
-0.37007248,0.30961415,-0.08226981,0.0,0.0
0.42723256,-0.25670186,0.13748148,0.0,0.0
0.036413968,-0.05074299,0.009617179,0.0,0.0
0.48172987,0.3318587,-0.07667375,0.0,0.0
0.010929548,-0.065345205,0.10843999,0.0,0.0
-0.3569365,-0.05753422,-0.0005825326,0.0,0.0
-0.14502993,0.16389926,0.009975586,0.0,0.0
0.6003299,-0.12222799,-0.13969134,0.0,0.0
0.2374885,-0.16735257,0.1965333,0.0,0.0
0.35617024,-0.061021693,0.04912651,0.0,0.0
-0.15294288,0.2706147,-0.12061959,0.0,0.0
0.7426586,0.015597734,-0.08377025,0.0,0.0
-0.15274271,-0.044415083,-0.12025585,0.0,0.0
0.09065345,0.059491172,-0.084783934,0.0,0.0
0.40357038,-0.049245857,-0.09046152,0.0,0.0
0.44079524,-0.12247618,-0.038968593,0.0,0.0
0.59213996,-0.11175175,-0.13159943,0.0,0.0
-0.5328488,0.058613446,-0.12500751,0.0,0.0
-0.6974487,-0.17020895,0.085561395,0.0,0.0
-0.33330792,0.16272347,-0.05164786,0.0,0.0
-0.73871154,-0.06642936,-0.08345976,0.0,0.0
0.31028378,-0.14111552,-0.10552661,0.0,0.0
0.20252195,0.066936955,-0.10154286,0.0,0.0
0.12943229,0.0677744,-0.08412139,0.0,0.0
0.55743337,-0.15706393,0.12386486,0.0,0.0
-0.6606186,-0.23829734,0.049978353,0.0,0.0
-0.21865988,-0.22283801,0.1377943,0.0,0.0
0.4927596,-0.18015134,0.20043826,0.0,0.0
-0.3525898,0.41627926,-0.06860099,0.0,0.0
-0.38759184,-0.076765284,-0.17168917,0.0,0.0
-0.030838227,-0.090746455,0.18269481,0.0,0.0
0.113551155,0.19800225,-0.06906592,0.0,0.0
0.49959725,-0.18706883,0.0815803,0.0,0.0
-0.14368154,-0.19210376,0.1314725,0.0,0.0
-0.5944202,-0.048602723,0.01913872,0.0,0.0
-0.7503955,0.07406493,-0.09525461,0.0,0.0
0.63317114,-0.24223062,0.1777592,0.0,0.0
-0.10111153,-0.060385253,-0.07598357,0.0,0.0
0.15000375,0.0073588826,0.037234038,0.0,0.0
0.37874863,0.38416988,0.004980796,0.0,0.0
0.48438802,0.055649508,-0.08073762,0.0,0.0
0.62481254,-0.19339074,-0.039934393,0.0,0.0
-0.6022991,-0.17719391,0.011732926,0.0,0.0
0.47783232,0.14370228,-0.09397451,0.0,0.0
0.69523346,-0.14566663,0.16617362,0.0,0.0
0.05878164,-0.012629015,0.20421553,0.0,0.0
-0.39647916,-0.26777896,0.20937598,0.0,0.0
-0.38196552,0.068037495,-0.056808174,0.0,0.0
0.17444257,0.041278906,-0.2257326,0.0,0.0
0.3721349,0.24043262,-0.08137311,0.0,0.0
-0.31434542,-0.15703274,-0.11874183,0.0,0.0
-0.25343707,0.05603414,-0.028003411,0.0,0.0
0.12559378,0.060009,-0.09359007,0.0,0.0
0.15489641,0.36945277,-0.033127513,0.0,0.0
-0.50623405,0.011320819,0.012732161,0.0,0.0
-0.27559182,0.06578511,-0.10042716,0.0,0.0
0.145159,-0.013984593,0.05948643,0.0,0.0
0.9372478,-0.06465159,-0.06353197,0.0,0.0
-0.08954721,-0.19444136,0.0293501,0.0,0.0
-0.20060386,0.062484875,0.029513422,0.0,0.0
0.5368251,-0.051019542,-0.2100043,0.0,0.0
0.1041477,0.046537716,-0.006465443,0.0,0.0
-0.13370818,0.21719092,-0.09330196,0.0,0.0
0.5449906,-0.013941865,-0.2002369,0.0,0.0
0.7715445,0.16190839,-0.05379301,0.0,0.0
0.023384903,0.106399335,-0.090436876,0.0,0.0
0.7024772,-0.13580132,0.1838623,0.0,0.0
0.44569007,-0.10021612,0.0029473354,0.0,0.0
0.784356,-0.035100244,-0.09815782,0.0,0.0
-0.03639319,0.037865467,0.06558243,0.0,0.0
0.40794933,0.06665647,-0.027452437,0.0,0.0
-0.06991784,-0.17554787,0.366312,0.0,0.0
0.30658898,-0.21072042,0.16021773,0.0,0.0
-0.8029824,0.008734756,-0.07337108,0.0,0.0
0.014263497,0.024744133,-0.14470592,0.0,0.0
0.3237368,-0.044626743,0.0026611604,0.0,0.0
0.50243497,0.019364351,0.0059722145,0.0,0.0
0.45163357,0.12841114,-0.11188221,0.0,0.0
0.24611495,0.0208293,0.05404713,0.0,0.0
0.7890603,-0.095757596,-0.07747382,0.0,0.0
-0.02544879,0.11611203,-0.11218223,0.0,0.0
0.5975973,-0.13735041,0.15791269,0.0,0.0
0.14257453,-0.15985961,0.061261244,0.0,0.0
-0.26401868,-0.008264768,-0.019430257,0.0,0.0
-0.01083947,0.10574863,-0.10253041,0.0,0.0
0.14646748,0.13566634,-0.12549789,0.0,0.0
0.22836815,0.008711821,0.050150514,0.0,0.0
-0.5751195,-0.26318094,0.10280277,0.0,0.0
0.0150713995,0.18376614,-0.13756323,0.0,0.0
-0.695291,-0.029793791,0.08358858,0.0,0.0
-0.08819519,-0.15542012,0.16385981,0.0,0.0
0.7041664,-0.13029991,0.08545264,0.0,0.0
-0.6816759,-0.1335528,0.1098991,0.0,0.0
-0.03459227,0.035073902,-0.0852612,0.0,0.0
-0.1065405,0.17015494,-0.14835083,0.0,0.0
-0.023060858,0.0075203544,-0.08354776,0.0,0.0
0.08051068,0.043502703,-0.06389261,0.0,0.0
0.699941,-0.12419703,0.21073368,0.0,0.0
-0.8072769,-0.17155054,0.07045452,0.0,0.0
-0.05990581,-0.3041269,0.34251586,0.0,0.0
0.5154512,-0.12059077,0.13887922,0.0,0.0
0.11457948,-0.0041807014,-0.080956966,0.0,0.0
0.49415532,0.21196161,0.007858871,0.0,0.0
0.41273737,-0.22909707,-0.07422704,0.0,0.0
-0.2312927,0.15747674,-0.21313481,0.0,0.0
0.5132406,-0.14060089,-0.016676622,0.0,0.0
0.35272074,-0.0041366164,-0.093905,0.0,0.0
-0.14798144,-0.20395474,0.18635154,0.0,0.0
-0.8010456,-0.18101184,-0.16752934,0.0,0.0
0.2048453,-0.20341083,-0.014003576,0.0,0.0
0.5577079,-0.21853927,0.19682465,0.0,0.0
-0.6077181,0.1887047,-0.12637365,0.0,0.0
0.7588772,-0.274282,-0.033184838,0.0,0.0
-0.42197677,-0.16094881,0.09089008,0.0,0.0
0.59389526,-0.04596543,0.04548537,0.0,0.0
0.46391505,0.22700027,-0.101111144,0.0,0.0
0.20338036,-0.26072887,0.29216358,0.0,0.0
-0.3197351,0.14267145,-0.07173375,0.0,0.0
0.31045914,0.18395081,-0.14966045,0.0,0.0
0.6424288,-0.039066464,-0.14863957,0.0,0.0
0.23712227,-0.18411884,-0.3318547,0.0,0.0
-0.5974881,-0.18222697,0.042639244,0.0,0.0
-0.34848973,-0.14428993,0.15285179,0.0,0.0
-0.64494723,0.032790065,-0.16913873,0.0,0.0
-0.18209106,0.037411094,-0.028916307,0.0,0.0
0.101415396,0.11787962,0.033761624,0.0,0.0
0.48908454,0.10151436,-0.101865254,0.0,0.0
0.15722315,-0.22086357,0.037582703,0.0,0.0
-0.11475247,0.030293662,-0.14303131,0.0,0.0
0.14834753,0.19548544,-0.052030955,0.0,0.0
-0.7229334,-0.16432683,-0.05986491,0.0,0.0
0.27892488,0.129827,-0.043804634,0.0,0.0
0.014099304,-0.33030593,-0.031097302,0.0,0.0
-0.34072867,-0.053964846,0.025066953,0.0,0.0
-0.16193797,0.14003682,-0.056617327,0.0,0.0
0.45373994,-0.09943883,0.10911226,0.0,0.0
0.4858794,0.05723974,-0.10427129,0.0,0.0
-0.43276554,-0.04271508,-0.16408698,0.0,0.0
-0.45463124,-0.18145707,0.08759393,0.0,0.0
0.29270774,-0.002087372,0.09108549,0.0,0.0
-0.6040686,-0.25597256,0.21458551,0.0,0.0
0.6047394,0.32654196,-0.1275626,0.0,0.0
-0.043973647,-0.29379725,0.27658314,0.0,0.0
0.661288,-0.14344713,0.1336227,0.0,0.0
-0.7724201,-0.20466426,0.115508094,0.0,0.0
0.12323964,0.066374995,-0.05205772,0.0,0.0
0.29817808,0.24892665,-0.028372642,0.0,0.0
-0.389304,-0.11127258,0.012297598,0.0,0.0
-0.26822793,0.07367407,-0.012223674,0.0,0.0
-0.16920109,0.109311745,-0.13119036,0.0,0.0
-0.19070967,-0.09215295,0.043785542,0.0,0.0
-0.013480615,-0.19184306,-0.00082948816,0.0,0.0
-0.012465175,0.058574844,0.0028818497,0.0,0.0
0.0043163486,-0.003561445,0.074243255,0.0,0.0
0.4864842,0.3766754,-0.0032017801,0.0,0.0
0.20566887,-0.06546189,0.18970382,0.0,0.0
0.3150708,0.30424985,-0.100306295,0.0,0.0
0.5728012,-0.179678,0.094266236,0.0,0.0
-0.32581747,-0.0144171845,0.06386046,0.0,0.0
0.59977055,-0.024648843,0.0209441,0.0,0.0
-0.19594523,-0.13352433,0.0012086804,0.0,0.0
0.16684304,0.35387254,-0.113515854,0.0,0.0
0.259339,-0.24322654,-0.0010390673,0.0,0.0
-0.66574913,-0.15590401,-0.03902524,0.0,0.0
0.25998038,0.37763932,0.021419797,0.0,0.0
-0.06337602,-0.15289426,-0.0316652,0.0,0.0
0.1729767,-0.10047596,-0.11878064,0.0,0.0
0.7609621,-0.13914932,0.06281552,0.0,0.0
0.6052313,-0.16472687,0.17822035,0.0,0.0
0.22699046,0.1224486,-0.12770304,0.0,0.0
-0.43657762,-0.18583044,0.033063304,0.0,0.0
0.40177172,0.4102376,-0.120701574,0.0,0.0
0.0959067,-0.07912482,0.058645085,0.0,0.0
0.52388865,0.24082255,-0.077051684,0.0,0.0
0.5812718,-0.18496406,0.11703048,0.0,0.0
0.67459726,0.37698784,-0.09478635,0.0,0.0
0.47707435,-0.09642695,-0.12179134,0.0,0.0
-0.07641425,-0.22464865,0.050371952,0.0,0.0
0.17145577,0.3771968,-0.11451492,0.0,0.0
-0.03784628,0.353245,-0.038321536,0.0,0.0
0.21324223,-0.1212108,-0.100894496,0.0,0.0
0.055308856,-0.20797946,0.050105616,0.0,0.0
0.34025478,-0.17545764,0.24320436,0.0,0.0
0.39737627,0.26261583,-0.09600938,0.0,0.0
0.36852726,-0.036200352,-0.14837019,0.0,0.0
0.80732024,0.2687684,-0.016899373,0.0,0.0
-0.5947396,-0.18518193,-0.08089069,0.0,0.0
0.1567873,0.012802746,0.022997208,0.0,0.0
0.026052002,0.012002085,-0.091579266,0.0,0.0
-0.22289127,-0.09666061,-0.08292317,0.0,0.0
-0.247935,-0.19651008,-0.041281365,0.0,0.0
-0.12553968,-0.17760406,0.2758045,0.0,0.0
-0.57136345,0.24766707,-0.13100742,0.0,0.0
-0.45492354,-0.054842632,0.07098176,0.0,0.0
-0.04372019,-0.063771285,0.037273142,0.0,0.0
-0.43092227,0.08609328,-0.01819756,0.0,0.0
0.7601117,-0.1529803,0.050214935,0.0,0.0
0.5254845,-0.15111911,-0.03686899,0.0,0.0
0.075631745,-0.0036419667,-0.061884407,0.0,0.0
0.7773814,0.046406135,-0.09998012,0.0,0.0
0.39577535,-0.17804572,0.25168118,0.0,0.0
0.4250425,-0.061709132,-0.07944532,0.0,0.0
-0.35728562,0.044883378,0.07210343,0.0,0.0
0.86013216,0.041483607,-0.023467245,0.0,0.0
-0.22932768,-0.054213278,-0.15831563,0.0,0.0
0.55578977,0.010464725,-0.03819679,0.0,0.0
-0.24607454,-0.09343476,-0.1502283,0.0,0.0
0.3606549,-0.3635467,0.0957071,0.0,0.0
0.24649164,0.010012651,0.05587576,0.0,0.0
0.7350323,-0.1280182,0.08021939,0.0,0.0
-0.9884661,0.04252268,-0.22573245,0.0,0.0
0.3033389,-0.17898536,0.035392247,0.0,0.0
0.7123372,-0.08277188,0.029197183,0.0,0.0
0.7067796,0.7247731,-0.1924327,0.0,0.0
-0.12039873,-0.14954531,0.07965958,0.0,0.0
0.27812493,-0.03137359,-0.07998941,0.0,0.0
-0.5548499,0.039289713,-0.021149259,0.0,0.0
-0.44767106,-0.20830384,-0.08275904,0.0,0.0
-0.049712718,-0.17763881,0.20737974,0.0,0.0
0.6554011,-0.04297451,0.035906464,0.0,0.0
-0.28376338,0.12532245,-0.056623887,0.0,0.0
-0.3927564,-0.16536228,-0.06474697,0.0,0.0
-0.23245491,-0.0012811197,-0.12383297,0.0,0.0
0.12601714,0.32243267,-0.06817784,0.0,0.0
-0.623196,0.07746493,-0.062091134,0.0,0.0
0.07049179,-0.21682814,0.061424173,0.0,0.0
-0.9398178,-0.15831357,-0.058420427,0.0,0.0
0.30313683,-0.03512021,-0.09580393,0.0,0.0
0.63997036,0.30906197,-0.14681904,0.0,0.0
0.5549934,-0.17038444,-0.009599246,0.0,0.0
0.32062235,-0.18796188,0.10103384,0.0,0.0
0.3836505,-0.07372189,-0.0065870676,0.0,0.0
0.60408115,-0.17840782,0.22012925,0.0,0.0
-0.5404191,-0.097362846,0.08802526,0.0,0.0
-0.5872515,0.08191012,-0.07712216,0.0,0.0
0.5828762,0.058977984,-0.05774757,0.0,0.0
0.5018255,-0.14202781,-0.20289768,0.0,0.0
0.5093179,-0.1952557,0.23484436,0.0,0.0
-0.30611295,0.11596356,-0.04070592,0.0,0.0
-0.4857839,-0.06584905,-0.12916403,0.0,0.0
-0.28981563,-0.18167947,-0.013889416,0.0,0.0
-0.40547305,-0.117640026,-0.022385078,0.0,0.0
0.5050558,0.07078762,-0.017795455,0.0,0.0
-0.7737281,-0.019838138,-0.09329524,0.0,0.0
0.21867356,-0.16259846,0.3030994,0.0,0.0
0.067045875,-0.09754826,0.013921547,0.0,0.0
0.41778764,-0.08096319,-0.20889713,0.0,0.0
-0.6220833,-0.13205431,-0.0678993,0.0,0.0
-0.13901089,0.15703008,-0.055999707,0.0,0.0
0.34967202,0.22156091,-0.038566593,0.0,0.0
0.43089512,-0.012069025,-0.09633599,0.0,0.0
-0.26484704,0.17695343,-0.10604442,0.0,0.0
-0.100342445,-0.028002305,-0.08201576,0.0,0.0
-0.61596376,0.0024943172,0.0698389,0.0,0.0
-0.0640541,0.19299066,-0.009730436,0.0,0.0
0.20161077,-0.076390795,-0.028403588,0.0,0.0
-0.030075185,0.0052402974,-0.109112136,0.0,0.0
0.62015986,0.051581066,-0.1002215,0.0,0.0
-0.2908884,0.01851072,-0.12930995,0.0,0.0
-0.36672354,-0.14755079,0.2332246,0.0,0.0
0.30837074,-0.23035514,-0.031937476,0.0,0.0
-0.5614734,-0.001705627,0.29162532,0.0,0.0
-0.44073546,0.073091805,-0.00094200415,0.0,0.0
0.21966615,-0.025016584,0.0037876186,0.0,0.0
0.58390635,0.106022105,-0.012974082,0.0,0.0
-0.48455936,-0.031389747,-0.11679578,0.0,0.0
-0.6577196,0.13908365,-0.07617441,0.0,0.0
0.50845057,0.38132527,-0.17497507,0.0,0.0
0.7304571,0.19765335,-0.09920332,0.0,0.0
0.41138032,-0.026474673,0.0104835965,0.0,0.0
0.49535868,-0.235193,-0.22702028,0.0,0.0
-0.26197466,0.090799995,-0.1342102,0.0,0.0
0.07414747,-0.32926905,-0.07826175,0.0,0.0
-0.13564718,0.044234637,-0.023839107,0.0,0.0
-0.75261563,-0.025792848,0.05714458,0.0,0.0
0.4119397,-0.12852807,-0.09482517,0.0,0.0
0.62031823,-0.07849187,0.11595991,0.0,0.0
-0.6047632,-0.12498081,0.21743192,0.0,0.0
-0.64086527,0.2180697,-0.12626554,0.0,0.0
-0.11409942,0.028984737,0.06235003,0.0,0.0
0.63383985,-0.14903212,0.11494951,0.0,0.0
-0.2234456,0.06012666,0.31637204,0.0,0.0
-0.71238005,-0.21858026,-0.0119909365,0.0,0.0
-0.53617406,0.103416465,-0.08053184,0.0,0.0
0.27513692,0.022392683,0.108510405,0.0,0.0
0.6094403,-0.09286441,0.097616605,0.0,0.0
-0.1803493,-0.12481152,-0.07306562,0.0,0.0
-0.641624,0.28869906,-0.08743141,0.0,0.0
-0.7138662,-0.0041449424,-0.112547174,0.0,0.0
-0.25096372,-0.060488034,-0.09382284,0.0,0.0
0.18366368,-0.062232852,-0.048389703,0.0,0.0
0.2781859,-0.039848026,-0.09148392,0.0,0.0
0.87316304,0.08455018,-0.025327522,0.0,0.0
-0.39166942,0.21294302,-0.061886176,0.0,0.0
-0.5586567,-0.036580835,-0.06775321,0.0,0.0
0.35523045,-0.05925804,0.21028012,0.0,0.0
-0.3617073,0.04789176,-0.043536775,0.0,0.0
-0.41016054,-0.0977362,0.107396334,0.0,0.0
0.37503558,-0.018662207,0.0015589073,0.0,0.0
-0.544143,0.10106476,-0.07721865,0.0,0.0
-0.3542753,0.1224939,-0.011401748,0.0,0.0
0.25670174,0.24480599,-0.09830176,0.0,0.0
0.566942,7.697893e-05,0.14178935,0.0,0.0
0.03410795,-0.17204256,0.031619396,0.0,0.0
-0.0791834,-0.064128175,-0.12280827,0.0,0.0
-0.11777183,-0.09646588,-0.00587776,0.0,0.0
-0.18845946,-0.091247424,-0.02217617,0.0,0.0
-0.44709072,-0.101417765,-0.011756111,0.0,0.0
-0.43023157,0.042789984,-0.07403964,0.0,0.0
-0.46743438,-0.16070119,0.16929218,0.0,0.0
-0.65137154,0.28911257,-0.091027476,0.0,0.0
0.79469067,0.071458586,-0.11596952,0.0,0.0
-0.5857648,0.13967687,-0.055176448,0.0,0.0
-0.5960242,-0.2867176,0.22318107,0.0,0.0
-0.3961002,-0.08330123,0.10474916,0.0,0.0
0.3530259,0.012988377,0.009427398,0.0,0.0
-0.08835159,-0.13908543,0.23255007,0.0,0.0
-0.24530059,0.059600476,-0.074056745,0.0,0.0
-0.5151449,-0.15925492,0.16441262,0.0,0.0
0.64301187,-0.11599875,-0.17534313,0.0,0.0
-0.19948249,0.08368633,-0.017368432,0.0,0.0
-0.11734608,0.053711127,-0.08390966,0.0,0.0
-0.48749954,-0.057437267,0.03679403,0.0,0.0
0.2447631,0.29466194,-0.06017418,0.0,0.0
0.05893263,0.041632842,-0.16835104,0.0,0.0
-0.3166361,-0.256033,0.10163017,0.0,0.0
-0.4176508,-0.10336767,0.12800875,0.0,0.0
-0.015867496,-0.048051767,-0.043212038,0.0,0.0
-0.5761166,-0.2629903,-0.087039374,0.0,0.0
0.36124507,0.357874,-0.09457797,0.0,0.0
-0.3903753,-0.10531682,0.0055653416,0.0,0.0
-0.23073597,-0.10707491,-0.14584833,0.0,0.0
-0.32865018,-0.080962084,-0.17852336,0.0,0.0
0.45677942,0.005505824,-0.035615318,0.0,0.0
-0.5605975,-0.2178441,0.09281731,0.0,0.0
-0.041556653,0.010157571,-0.17035107,0.0,0.0
0.24809599,-0.07337996,0.02130271,0.0,0.0
-0.004171538,0.05753187,-0.119860336,0.0,0.0
0.31527114,-0.19915484,-0.14095646,0.0,0.0
-0.28561693,-0.048261058,-0.11395432,0.0,0.0
0.4603609,0.2105025,-0.105112344,0.0,0.0
-0.1254932,-0.14718948,-0.03424219,0.0,0.0
-0.83276135,0.016329957,-0.10933359,0.0,0.0
0.3558758,-0.015395843,-0.10416791,0.0,0.0
0.027308779,-0.023939392,-0.14706936,0.0,0.0
0.1920329,-0.22120848,0.02474244,0.0,0.0
0.58116865,-0.038581166,-0.09301543,0.0,0.0
-0.25635278,-0.031018643,-0.14096302,0.0,0.0
-0.33059806,-0.086227916,0.11636216,0.0,0.0
-0.7259737,-0.21967046,0.20671171,0.0,0.0
-0.8243052,-0.17369361,-0.08330761,0.0,0.0
0.32409927,0.27247655,-0.057419777,0.0,0.0
-0.089847736,-0.11204008,-0.09105848,0.0,0.0
-0.46395823,-0.15914924,0.17943479,0.0,0.0
-0.36292005,0.14685647,-0.042257838,0.0,0.0
0.513385,-0.034067016,-0.1486798,0.0,0.0
0.52079093,0.09894281,0.019522652,0.0,0.0
-0.0885535,0.24990772,-0.11357419,0.0,0.0
0.5769989,0.04059183,-0.12540263,0.0,0.0
-0.47816098,-0.16799249,-0.07874481,0.0,0.0
-0.18597479,0.17057125,-0.073258325,0.0,0.0
-0.25890866,-0.14115794,0.109116495,0.0,0.0
0.6467701,-0.04751696,-0.0022136006,0.0,0.0
0.5872757,-0.19666529,-0.013540683,0.0,0.0
0.42982936,-0.17651579,0.2333834,0.0,0.0
-0.593439,-0.20510241,0.10482804,0.0,0.0
-0.8194927,0.27197298,-0.09883636,0.0,0.0
-0.024983957,0.17435402,-0.08580527,0.0,0.0
0.22129634,-0.11973706,-0.0649171,0.0,0.0
0.1393299,0.02312553,-0.120094016,0.0,0.0
0.5320955,-0.21409927,0.09419877,0.0,0.0
-0.71798724,-0.15022887,0.0011903058,0.0,0.0
0.64315844,-0.1091647,0.05377518,0.0,0.0
-0.017043296,-0.014922052,0.07310467,0.0,0.0
0.71765494,-0.09958278,-0.011897242,0.0,0.0
-0.4301863,-0.15943356,0.1543844,0.0,0.0
0.89237547,0.26562446,-0.034491573,0.0,0.0
-0.4646942,-0.18023944,0.17761154,0.0,0.0
0.50005347,-0.18211041,0.27168304,0.0,0.0
0.39884302,-0.15752344,0.03420706,0.0,0.0
0.8827868,0.14605677,-0.098514944,0.0,0.0
0.62042814,0.30238137,-0.11699443,0.0,0.0
-0.6574521,-0.105199255,-0.09912344,0.0,0.0
-0.7190551,0.15167888,-0.0238455,0.0,0.0
0.6186699,-0.28532255,0.07248155,0.0,0.0
0.51893556,-0.40787455,-0.004910318,0.0,0.0
