x,y,z,f,scl1
-0.13247392,-0.23736379,-0.10186236,0.0,0.0
-0.16086768,-0.08358921,0.14378014,0.0,0.0
0.43049657,0.17866355,-0.11367426,0.0,0.0
-0.2335613,0.16803837,-0.093408324,0.0,0.0
0.24795194,-0.19834132,0.20800197,0.0,0.0
0.42576492,-0.25582904,0.12093925,0.0,0.0
0.24262577,-0.13456264,0.15379415,0.0,0.0
0.07257896,0.2916892,-0.14747433,0.0,0.0
-0.28182063,-0.015547174,-0.038383037,0.0,0.0
0.60551876,0.11200763,-0.099479824,0.0,0.0
-0.89002556,-0.21284388,-0.036187075,0.0,0.0
-0.13159268,-0.027725926,-0.03997969,0.0,0.0
0.7135472,-0.27122095,0.046493005,0.0,0.0
0.31076023,0.006320356,-0.19920951,0.0,0.0
-0.69100726,-0.18127781,-0.0445607,0.0,0.0
-0.9672416,0.13129476,-0.023054168,0.0,0.0
0.25235412,-0.11924615,0.13839479,0.0,0.0
0.118184514,-0.23270646,0.09095203,0.0,0.0
-0.056173656,0.27139097,0.0010921247,0.0,0.0
-0.085228555,0.022145508,-0.047553293,0.0,0.0
-0.040346116,0.11456033,-0.0798877,0.0,0.0
0.1330198,-0.11962839,0.04694022,0.0,0.0
0.23674907,-0.057210542,-0.0184242,0.0,0.0
0.08321418,0.45356664,-0.06705006,0.0,0.0
-0.5186335,0.1094155,-0.13724703,0.0,0.0
-0.36811975,-0.089032315,-0.03789851,0.0,0.0
-0.28075346,-0.22781205,-0.055825032,0.0,0.0
0.15476197,0.0260593,-0.13357688,0.0,0.0
-0.6061001,-0.13629362,-0.03892049,0.0,0.0
-0.079116136,-0.027982648,0.016445095,0.0,0.0
0.090783454,0.21567392,-0.05908203,0.0,0.0
0.39322573,-0.02863552,-0.003102339,0.0,0.0
-0.08511017,0.2911299,-0.103364475,0.0,0.0
0.6670913,-0.13733588,-0.107534766,0.0,0.0
0.2837777,-0.17836462,-0.0052360045,0.0,0.0
0.46029255,-0.112378344,-0.026913594,0.0,0.0
-0.077989824,-0.17399119,0.038111344,0.0,0.0
0.06699625,-0.18429807,-0.17711686,0.0,0.0
0.59075946,-0.27470756,0.024561023,0.0,0.0
-0.055450324,0.0063601043,-0.042352054,0.0,0.0
-0.25090873,0.2892491,-0.076939814,0.0,0.0
0.10590132,-0.16388032,0.013822335,0.0,0.0
0.20178983,0.11403731,-0.15833558,0.0,0.0
-0.7894018,-0.06942581,-0.05557236,0.0,0.0
-0.33494192,0.03604374,-0.040944375,0.0,0.0
-0.10277823,-0.020640906,0.087695345,0.0,0.0
-0.5056989,-0.123856224,-0.034199253,0.0,0.0
-0.4110785,-0.021654233,-0.09502213,0.0,0.0
0.01977608,0.065067165,-0.14555684,0.0,0.0
-0.32087642,0.09334757,-0.044087846,0.0,0.0
-0.70591545,-0.06736625,0.020679425,0.0,0.0
-0.34073478,0.14366716,-0.03538959,0.0,0.0
-0.6940345,0.04762108,-0.12007944,0.0,0.0
0.72781175,0.23547527,-0.11793821,0.0,0.0
0.26702374,-0.23143232,-0.03712027,0.0,0.0
-0.6138379,-0.12322162,-0.1462324,0.0,0.0
0.5263462,-0.0061730538,-0.10806897,0.0,0.0
0.37110335,-0.10781254,0.016216256,0.0,0.0
-0.23359796,0.005727104,0.0054545123,0.0,0.0
0.0366461,-0.07019395,0.15522952,0.0,0.0
0.9629257,-0.048983313,-0.1173006,0.0,0.0
-0.65759903,0.11108627,-0.0636714,0.0,0.0
0.26566795,-0.093519524,0.043117374,0.0,0.0
-0.42459407,0.048964176,-0.110557765,0.0,0.0
0.31551248,0.2289254,-0.0011658189,0.0,0.0
-0.18476687,0.098242275,-0.15577386,0.0,0.0
-0.23086655,-0.039159104,0.120312,0.0,0.0
0.25065154,0.05795089,-0.06864635,0.0,0.0
-0.31534955,0.09524989,-0.025375359,0.0,0.0
0.13707411,0.09080086,-0.051287245,0.0,0.0
-0.4631854,-0.23144601,0.03868077,0.0,0.0
-0.75925434,-0.119963445,-0.002717853,0.0,0.0
-0.023824686,-0.19713765,0.057995163,0.0,0.0
-0.39741027,-0.15934357,0.10112131,0.0,0.0
-0.28193557,-0.08786461,-0.004042096,0.0,0.0
-0.29201412,-0.029950235,-0.023998788,0.0,0.0
0.69550705,-0.16460584,0.16897316,0.0,0.0
0.4238905,-0.2294323,0.02797134,0.0,0.0
0.22624247,0.35808456,0.0004901667,0.0,0.0
-0.16160372,-0.013168617,-0.1069093,0.0,0.0
-0.37685302,0.09650584,-0.15970783,0.0,0.0
-0.43256372,0.042215418,-0.12632525,0.0,0.0
0.42836094,0.06502676,0.070897736,0.0,0.0
-0.6681044,-0.24362686,0.16595285,0.0,0.0
-0.004410673,-0.13225944,-0.05168444,0.0,0.0
0.56437355,0.0053903,-0.00047458825,0.0,0.0
0.109507814,-0.14208332,0.17143191,0.0,0.0
0.5423492,-0.079455815,0.19598134,0.0,0.0
-0.617988,-0.14683592,-0.12550789,0.0,0.0
-0.15872274,0.012167697,-0.05562739,0.0,0.0
0.56295854,-0.13043556,0.08987065,0.0,0.0
0.5598425,0.000725321,-0.040170986,0.0,0.0
0.6266809,-0.048930246,-0.03740855,0.0,0.0
0.16313046,-0.07068563,-0.041519772,0.0,0.0
0.54968244,-0.008500679,0.039872438,0.0,0.0
-0.26648647,-0.021074492,-0.0318657,0.0,0.0
0.63696545,0.5285141,0.0027479827,0.0,0.0
-0.8724094,-0.12775706,-0.07395701,0.0,0.0
0.2944415,0.002716301,0.043137837,0.0,0.0
-0.11508805,-0.16082737,0.26855254,0.0,0.0
0.44290134,0.14356239,-0.14694321,0.0,0.0
0.190941,-0.08007201,0.018942669,0.0,0.0
0.48051444,0.07506569,-0.0839576,0.0,0.0
-0.4144562,0.102180764,-0.121382974,0.0,0.0
-0.21805456,-0.0012446551,-0.12291595,0.0,0.0
0.013472885,-0.0033605848,-0.110743925,0.0,0.0
0.66635484,-0.07309064,-0.14121984,0.0,0.0
0.14142093,-0.09783855,0.10816386,0.0,0.0
0.5080227,0.32635948,0.025562886,0.0,0.0
0.53414106,0.34694993,-0.19093066,0.0,0.0
-0.4768318,-0.30729923,0.03100725,0.0,0.0
0.8268058,0.12519425,-0.11485808,0.0,0.0
0.33949912,-0.057760537,0.03243956,0.0,0.0
-0.5536146,-0.16262913,0.04567564,0.0,0.0
0.04716337,-0.113739796,0.18294168,0.0,0.0
0.67403287,0.17372759,-0.17443499,0.0,0.0
0.07184693,-0.24273902,0.14596009,0.0,0.0
-0.13993052,-0.031397928,0.110581905,0.0,0.0
0.41395292,-0.20501368,0.05884269,0.0,0.0
-0.5459638,0.10006697,-0.08660505,0.0,0.0
-0.14296229,0.056575783,-0.111122064,0.0,0.0
0.045316175,0.10292811,0.058161825,0.0,0.0
0.47783053,-0.08529038,-0.017196732,0.0,0.0
-0.63790345,-0.22797023,0.0540904,0.0,0.0
0.10640578,-0.10210139,-0.23699372,0.0,0.0
-0.023667905,0.323689,-0.09602201,0.0,0.0
-0.2877769,0.07129673,-0.038551364,0.0,0.0
0.2357067,-0.08155963,0.06530866,0.0,0.0
-0.27806595,-0.16904734,0.20827124,0.0,0.0
-0.101421066,0.13412791,-0.20039953,0.0,0.0
-0.42603177,0.07789459,-0.14556555,0.0,0.0
0.42768678,-0.26120034,-0.1263577,0.0,0.0
0.2692498,0.3957551,-0.11726234,0.0,0.0
-0.03658608,0.17725028,-0.14896458,0.0,0.0
0.16618846,0.079634085,-0.1204612,0.0,0.0
-0.26453197,-0.10532217,0.09441861,0.0,0.0
-0.4673755,0.21194442,-0.03905988,0.0,0.0
0.405157,-0.0017499216,0.03824186,0.0,0.0
0.4984678,-0.044257868,0.07724539,0.0,0.0
0.5486693,-0.066088684,-0.1378323,0.0,0.0
0.022736685,-0.06376205,0.052892398,0.0,0.0
0.6465544,0.04228924,-0.08256876,0.0,0.0
0.61958927,0.04840223,-0.031383738,0.0,0.0
-0.5265358,-0.2377172,-0.0048064925,0.0,0.0
-0.6484688,-0.12789072,-0.09625023,0.0,0.0
-0.6188364,-0.012797987,-0.0051475978,0.0,0.0
-0.15004429,-0.14504397,0.07686147,0.0,0.0
0.24909438,0.2042378,0.07117312,0.0,0.0
0.57055366,-0.0962336,-0.07592617,0.0,0.0
0.5344018,-0.26252747,0.033015158,0.0,0.0
0.54272425,-0.14132667,0.13574068,0.0,0.0
-0.11849347,-0.03646979,-0.012946659,0.0,0.0
-0.36404303,0.08959757,-0.08701223,0.0,0.0
0.28686097,0.29427353,0.07348311,0.0,0.0
-0.29626426,0.12206799,-0.073432125,0.0,0.0
-0.22716154,-0.1967198,0.13315578,0.0,0.0
0.15553845,0.25753427,-0.11287531,0.0,0.0
0.7455752,0.039254755,-0.09999568,0.0,0.0
0.15776153,0.22519222,-0.12770312,0.0,0.0
0.028661232,-0.00048222207,0.10200939,0.0,0.0
0.6296548,-0.082125664,0.10442984,0.0,0.0
-0.023473164,0.020115621,-0.0821215,0.0,0.0
0.42471313,0.010233459,0.014889826,0.0,0.0
-0.31729305,-0.19327185,-0.076906174,0.0,0.0
-0.3433719,0.13839269,-0.12511209,0.0,0.0
-0.47949126,0.15640348,-0.09851579,0.0,0.0
0.4551043,0.0030410169,0.01889698,0.0,0.0
0.560923,0.034108676,-0.017053356,0.0,0.0
0.37314934,-0.1848545,-0.087921865,0.0,0.0
0.5105631,-0.024970362,-0.12882254,0.0,0.0
0.68201464,-0.17357337,-0.10108532,0.0,0.0
0.65361184,-0.21474676,0.09583731,0.0,0.0
0.42538455,-0.0033595732,-0.10643641,0.0,0.0
-0.5669846,-0.1610277,-0.07437729,0.0,0.0
0.62311906,0.057182465,-0.14523298,0.0,0.0
0.8169581,-0.027316958,0.0224007,0.0,0.0
-0.5215397,-0.17560726,0.16249815,0.0,0.0
-0.14428966,0.049139656,-0.11362906,0.0,0.0
0.3177705,0.06854772,-0.05867509,0.0,0.0
-0.34645155,0.003540068,-0.0051886574,0.0,0.0
-0.202601,-0.14220826,0.17406628,0.0,0.0
0.13380432,0.089880355,-0.13414751,0.0,0.0
-0.77993226,-0.03244925,-0.07229659,0.0,0.0
0.53866124,-0.15095192,-0.09329993,0.0,0.0
0.29568085,-0.0977035,-0.09761635,0.0,0.0
0.78417003,-0.04070575,-0.052650224,0.0,0.0
-0.24959704,0.057021625,0.019240588,0.0,0.0
0.28908408,0.020849474,0.049620405,0.0,0.0
-0.034246393,0.1709353,-0.023608562,0.0,0.0
-0.053216737,-0.1849088,0.04205493,0.0,0.0
-0.3507278,-0.020600576,-0.03595048,0.0,0.0
-0.39825025,-0.04049614,0.07970383,0.0,0.0
0.019591877,0.15104945,-0.13026114,0.0,0.0
-0.5658976,-0.090109475,-0.14325587,0.0,0.0
0.40345195,-0.07916277,0.1285493,0.0,0.0
0.4851446,-0.24184513,0.21086466,0.0,0.0
0.32994014,-0.087371156,-0.13195603,0.0,0.0
-0.038923923,-0.022331102,-0.020083603,0.0,0.0
0.110579036,0.40864018,-0.08447623,0.0,0.0
0.53019875,-0.18089156,0.0636517,0.0,0.0
0.5346247,0.3898701,-0.11082465,0.0,0.0
0.025508288,-0.084564224,-0.0014937556,0.0,0.0
-0.6935062,-0.17546505,0.1432594,0.0,0.0
-0.2758272,-0.13492933,-0.06978532,0.0,0.0
0.73710674,-0.112573676,-0.019580914,0.0,0.0
0.26809964,-0.18966204,0.28197265,0.0,0.0
-0.5213064,0.040904168,0.076697536,0.0,0.0
0.389498,0.06324875,-0.09051102,0.0,0.0
0.18683264,-0.12797654,0.08829618,0.0,0.0
0.6474338,-0.10699836,0.13866821,0.0,0.0
-0.6052906,0.18442842,-0.12056116,0.0,0.0
0.08751463,0.08886171,-0.14040793,0.0,0.0
0.19502339,-0.10637854,0.2422407,0.0,0.0
-0.2053037,-0.0813622,0.08265476,0.0,0.0
-0.18752412,0.058607973,-0.13263986,0.0,0.0
-0.7721876,-0.08366645,0.015889712,0.0,0.0
0.52132463,0.061261866,-0.05996666,0.0,0.0
-0.019217959,-0.16563681,0.051526375,0.0,0.0
0.6702644,0.004555246,-0.027565772,0.0,0.0
0.4467096,0.051601667,-0.055192757,0.0,0.0
-0.6890839,0.026118368,-0.11003769,0.0,0.0
0.50200444,-0.036379945,-0.124904245,0.0,0.0
0.2850584,-0.0441943,-0.13301055,0.0,0.0
0.055443514,-0.25758955,0.058479074,0.0,0.0
-0.17671405,0.31625423,-0.1147984,0.0,0.0
0.12527631,-0.12584764,0.053653028,0.0,0.0
-0.52591914,0.063984446,0.0465732,0.0,0.0
0.3573532,0.121348284,-0.13882692,0.0,0.0
-0.29399666,-0.1308411,-0.11615038,0.0,0.0
-0.7337682,-0.10550799,0.092056066,0.0,0.0
-0.10361508,0.1413579,-0.080939494,0.0,0.0
0.3467544,-0.062978655,-0.041957635,0.0,0.0
0.17034633,-0.14744458,-0.026013419,0.0,0.0
0.5452054,0.093537256,-0.13756537,0.0,0.0
0.28815916,0.0060935533,0.04956102,0.0,0.0
0.056222722,0.1624945,0.046264604,0.0,0.0
0.36173832,-0.094805084,0.090020105,0.0,0.0
0.47367844,0.025387526,0.041844692,0.0,0.0
-0.01061685,-0.20517708,0.19895586,0.0,0.0
0.038294755,0.041622646,-0.06955787,0.0,0.0
0.3961681,-0.21971968,0.13504066,0.0,0.0
-0.08253497,0.1561374,-0.07490076,0.0,0.0
0.15804487,-0.17533927,0.067064464,0.0,0.0
-0.41118678,-0.068430595,-0.10098831,0.0,0.0
-0.16559236,-0.19311984,0.13662057,0.0,0.0
0.2557957,-0.039102234,-0.050649926,0.0,0.0
-0.09737487,0.1721566,-0.083533645,0.0,0.0
-0.22717103,0.24906974,-0.018486628,0.0,0.0
-0.6568603,-0.13265127,-0.04423929,0.0,0.0
0.6037849,-0.12813511,0.022036597,0.0,0.0
0.24725863,-0.078304544,-0.20043297,0.0,0.0
-0.39749867,-0.18123588,0.06338536,0.0,0.0
0.4796984,0.12009499,-0.0618887,0.0,0.0
0.3941922,-0.12926514,0.20338222,0.0,0.0
-0.48696414,-0.09966502,-0.1028292,0.0,0.0
0.52450836,0.3251192,0.08218656,0.0,0.0
0.09036225,-0.0034307993,0.10176387,0.0,0.0
-0.875873,-0.08853142,-0.042710453,0.0,0.0
-0.30069724,0.025387637,-0.094995536,0.0,0.0
0.3011186,-0.213093,0.15020338,0.0,0.0
-0.05710408,-0.15589468,0.10202142,0.0,0.0
0.25163475,-0.21093771,-0.131446,0.0,0.0
-0.11716338,0.17314039,-0.052693773,0.0,0.0
-0.056839243,-0.05311611,0.10969316,0.0,0.0
-0.64838475,-0.16558309,0.120180696,0.0,0.0
-0.26161996,-0.0900137,0.13378705,0.0,0.0
-0.326134,0.12987603,-0.17658912,0.0,0.0
-0.30578467,-0.193801,0.09913426,0.0,0.0
-0.12792628,-0.002531255,-0.079695284,0.0,0.0
-0.67845476,-0.18814181,0.11826001,0.0,0.0
-0.9849537,0.107939474,-0.0051967315,0.0,0.0
0.7420076,0.045429252,-0.1331109,0.0,0.0
0.36616585,0.11670304,-0.1540006,0.0,0.0
0.63378114,-0.047118463,0.102337725,0.0,0.0
0.4202191,-0.18920876,0.0010487728,0.0,0.0
0.08814798,-0.15141688,-0.0046039205,0.0,0.0
-0.12907031,-0.25005835,0.13237599,0.0,0.0
0.25369158,-0.1235181,0.119947724,0.0,0.0
0.37195197,-0.08340754,-0.013537622,0.0,0.0
0.7741242,-0.05611351,-0.025454747,0.0,0.0
-0.16627939,0.048640687,-0.12855716,0.0,0.0
-0.079497494,0.10519827,0.018209187,0.0,0.0
0.8444623,0.18030669,-0.034431465,0.0,0.0
-0.69496775,0.012888898,-0.078549795,0.0,0.0
-0.26567483,-0.053385656,0.014565699,0.0,0.0
-0.17623894,0.028937915,-0.039211493,0.0,0.0
0.12060679,0.07637946,-0.030833818,0.0,0.0
-0.59656334,-0.16795386,-0.15341294,0.0,0.0
-0.66262573,-0.23035298,-0.037122987,0.0,0.0
0.34494424,-0.10367142,0.18000112,0.0,0.0
0.5256789,-0.21276283,0.06503121,0.0,0.0
-0.56876516,0.08397661,-0.14192197,0.0,0.0
0.54150134,0.14883897,-0.08482513,0.0,0.0
-0.8090484,-0.03903939,-0.1287479,0.0,0.0
0.4030823,-0.1677854,0.20181812,0.0,0.0
-0.3980225,0.076448075,-0.0084549,0.0,0.0
-0.041669082,-0.14435582,0.28467542,0.0,0.0
-0.062828705,0.040734738,-0.06774902,0.0,0.0
-0.01132141,0.07491739,-0.105360016,0.0,0.0
0.24950068,-0.044422574,0.17809466,0.0,0.0
-0.28913403,0.090223014,-0.04107443,0.0,0.0
-0.6145895,-0.061562717,0.0145310415,0.0,0.0
0.48309767,0.3491884,-0.13612472,0.0,0.0
-1.1785996,-0.3254053,-0.077477105,0.0,0.0
0.45276242,-0.025798414,-0.16252951,0.0,0.0
0.24678321,0.44578522,-0.06326691,0.0,0.0
0.4707549,0.21215847,-0.077605516,0.0,0.0
0.57685834,0.35717988,-0.16734807,0.0,0.0
-0.63841414,-0.038691353,-0.089604385,0.0,0.0
0.1762302,-0.0077050333,-0.04299952,0.0,0.0
0.32846957,-0.19434261,0.022980802,0.0,0.0
0.48111656,0.027636444,-0.0026444886,0.0,0.0
0.269122,0.05984565,-0.063332975,0.0,0.0
-0.82614726,0.10524066,-0.15516607,0.0,0.0
0.27452734,0.33099604,-0.10413855,0.0,0.0
0.51934844,-0.16973956,0.097795054,0.0,0.0
-0.043767106,-0.149286,-0.18126096,0.0,0.0
0.6798368,-0.17033273,-0.1296424,0.0,0.0
-0.7087522,-0.05331014,0.0106289415,0.0,0.0
0.41094077,-0.11647383,0.06333829,0.0,0.0
-0.11757894,-0.11876669,0.09723194,0.0,0.0
0.42231923,0.12161676,-0.049759544,0.0,0.0
0.18907776,-0.1001758,0.06548642,0.0,0.0
-0.31438372,0.21900119,-0.07540144,0.0,0.0
0.867119,-0.15927354,0.2008276,0.0,0.0
0.76812094,-0.23601823,0.03809434,0.0,0.0
-0.56280535,-0.09518514,0.12485185,0.0,0.0
0.061187573,-0.4084036,0.32487947,0.0,0.0
0.16102424,-0.1400111,0.072240144,0.0,0.0
0.17345463,0.0859261,-0.10520367,0.0,0.0
-0.71605664,0.119878374,-0.05698079,0.0,0.0
0.13342303,-0.005254385,-0.08627904,0.0,0.0
0.5297056,0.048220478,-0.05345532,0.0,0.0
0.36144984,-0.13618608,0.19847201,0.0,0.0
-0.39936757,0.071850926,-0.08457416,0.0,0.0
-0.4292459,0.091057226,-0.008594723,0.0,0.0
-0.057867493,-0.096939355,0.14666514,0.0,0.0
-0.09954608,-0.118367635,0.19540504,0.0,0.0
-0.11380872,0.06048499,0.22474827,0.0,0.0
-0.8605876,-0.1560231,-0.004877598,0.0,0.0
-0.54068905,-0.059890553,-0.015266285,0.0,0.0
-0.74114543,-0.029772026,-0.07251743,0.0,0.0
-0.40562707,0.06829385,-0.10132022,0.0,0.0
0.13158159,0.030682996,-0.060628142,0.0,0.0
0.21374844,0.17233607,-0.0409172,0.0,0.0
0.2348468,-0.069307975,0.04546992,0.0,0.0
0.35780632,-0.080929086,-0.15783492,0.0,0.0
-0.7249216,-0.0020619524,-0.07055798,0.0,0.0
0.2753282,-0.021696378,0.06443354,0.0,0.0
-0.4256096,0.09161729,-0.057694938,0.0,0.0
-0.064830616,0.045210805,-0.10802571,0.0,0.0
0.7018543,-0.34831113,-0.12333632,0.0,0.0
-0.20850436,-0.07308982,-0.101789996,0.0,0.0
0.35271132,0.16973548,-0.045077175,0.0,0.0
0.7261539,-0.18346721,-0.08090098,0.0,0.0
0.006027733,0.008476082,-0.033674195,0.0,0.0
-0.27272677,-0.15962704,0.052951306,0.0,0.0
0.9976707,-0.10562915,-0.047224283,0.0,0.0
0.09708039,-0.09822038,-0.0049669156,0.0,0.0
0.40809885,-0.049377035,-0.048196506,0.0,0.0
0.04988438,0.097340986,0.006719243,0.0,0.0
-0.23418328,-0.13891435,0.1226681,0.0,0.0
-0.41607738,-0.054273427,-0.012109922,0.0,0.0
-0.45027602,-0.06938843,0.035076,0.0,0.0
-0.22029768,0.005595691,0.04666463,0.0,0.0
0.67812973,0.055261996,-0.020734882,0.0,0.0
0.26110333,0.16608247,0.0054140887,0.0,0.0
0.07401411,0.017787797,-0.15767929,0.0,0.0
-0.6934945,0.3104243,-0.13530079,0.0,0.0
-0.51824665,-0.14460628,0.024333756,0.0,0.0
-0.9200425,-0.15556554,-0.096380934,0.0,0.0
0.10135122,0.097689226,-0.100118704,0.0,0.0
0.48547822,0.25133857,-0.029098107,0.0,0.0
-0.15432958,-0.058169954,0.102239795,0.0,0.0
0.6955948,0.009584043,-0.1383407,0.0,0.0
-0.559449,-0.015698168,-0.044128023,0.0,0.0
-0.7418251,0.14377987,-0.09745396,0.0,0.0
0.0308237,0.15107861,-0.10183694,0.0,0.0
-0.16831642,-0.21604793,0.12786692,0.0,0.0
0.49371397,0.049489852,-0.0010301371,0.0,0.0
-0.21548815,0.1585491,-0.01825733,0.0,0.0
-0.49332798,-0.17940794,0.16974589,0.0,0.0
0.6839432,-0.102462016,-0.03590968,0.0,0.0
-0.5171217,0.34170696,-0.009108085,0.0,0.0
0.010019636,-0.2340978,-0.06084659,0.0,0.0
-0.4039557,-0.16303529,0.16942257,0.0,0.0
-0.58708334,0.02648899,-0.0019466914,0.0,0.0
0.29034346,-0.153034,0.060448352,0.0,0.0
-0.14041792,-0.054331858,0.10743003,0.0,0.0
0.51873076,-0.17107524,0.13596208,0.0,0.0
0.16711806,0.17615233,-0.04407206,0.0,0.0
0.0370176,0.17131498,-0.049114954,0.0,0.0
0.3482458,0.13113384,-0.07119413,0.0,0.0
0.18795075,-0.063291885,-0.06692709,0.0,0.0
0.27276778,-0.14353035,0.2247432,0.0,0.0
0.5391121,-0.34324127,0.029331787,0.0,0.0
0.28401867,0.05090209,-0.05146992,0.0,0.0
0.2793307,-0.02319989,0.106196746,0.0,0.0
0.086473204,-0.020391682,0.0034912801,0.0,0.0
-0.277179,-0.10364214,0.06750553,0.0,0.0
-0.1824003,-0.08366583,0.10700589,0.0,0.0
-0.47151423,0.02520357,-0.13050601,0.0,0.0
0.101823494,-0.22315885,0.15017703,0.0,0.0
0.017265076,-0.25484183,0.08816096,0.0,0.0
-0.20087905,0.10590714,-0.05108549,0.0,0.0
0.3377572,0.07709265,-0.14885834,0.0,0.0
0.38753444,-0.09538991,-0.03443113,0.0,0.0
0.21348488,0.17685089,-0.092062734,0.0,0.0
0.49883178,-0.11696029,0.115537286,0.0,0.0
0.5388096,0.18637232,-0.046779085,0.0,0.0
-0.23976648,-0.1633783,0.15350462,0.0,0.0
-0.65470403,-0.06980895,0.122499265,0.0,0.0
0.36948153,0.17339192,-0.102694936,0.0,0.0
-0.8175161,-0.08407439,-0.082692765,0.0,0.0
-0.07606136,0.10587665,-0.11636552,0.0,0.0
0.097372495,-0.24651545,0.12806512,0.0,0.0
0.1947264,0.09792778,-0.002582357,0.0,0.0
0.18544047,0.10884468,-0.12625477,0.0,0.0
0.72895414,0.2981821,-0.030874895,0.0,0.0
0.2939541,-0.26645654,0.05440363,0.0,0.0
-0.82445645,-0.014743782,-0.010429721,0.0,0.0
0.5843151,-0.20709178,-0.09421638,0.0,0.0
0.12336743,0.1797972,-0.08272712,0.0,0.0
-0.6458722,0.19355048,-0.08183924,0.0,0.0
0.38743988,-0.20953411,0.11127831,0.0,0.0
0.48380813,-0.06410304,0.112598024,0.0,0.0
-0.040834147,0.14284295,-0.11036238,0.0,0.0
-0.267901,-0.11457214,0.1198966,0.0,0.0
0.5136544,0.15506324,-0.1001817,0.0,0.0
-0.011385943,-0.034592636,-0.050185736,0.0,0.0
0.72394073,0.24580057,-0.0571991,0.0,0.0
0.041040406,0.03259778,0.00619114,0.0,0.0
0.32722604,0.057865385,-0.12836961,0.0,0.0
-0.3268718,-0.009598851,0.051282022,0.0,0.0
0.46352762,-0.17972292,0.19368212,0.0,0.0
-0.21483709,-0.23998436,0.22795239,0.0,0.0
0.61021024,-0.19225554,-0.065544106,0.0,0.0
-0.4548486,0.019751055,0.017749,0.0,0.0
0.343564,-0.07222541,0.10401623,0.0,0.0
-0.015660351,-0.08266497,0.08364081,0.0,0.0
0.39574358,-0.008283736,0.094456404,0.0,0.0
0.55552,-0.14061612,-0.13962623,0.0,0.0
0.20256352,-0.119653754,0.046774972,0.0,0.0
-0.24200074,-0.14512166,-0.054945484,0.0,0.0
-0.7122407,-0.19342005,0.011543464,0.0,0.0
0.24801666,-0.055664543,-0.02005188,0.0,0.0
-0.68535745,-0.15651932,0.0056958166,0.0,0.0
-0.042305004,-0.05133384,-0.044695634,0.0,0.0
-0.74239415,-0.0828207,-0.13088545,0.0,0.0
-0.31861806,-0.088173985,-0.061469063,0.0,0.0
0.6671122,-0.12223757,-0.22161202,0.0,0.0
-0.5790535,-0.041962992,-0.025522301,0.0,0.0
-0.3473088,-0.12632759,0.17620008,0.0,0.0
0.5078059,0.048337884,-0.018204605,0.0,0.0
-0.047266077,-0.14692126,0.1707113,0.0,0.0
0.009527168,-0.22354884,0.34267142,0.0,0.0
0.5735275,-0.19912289,0.041856878,0.0,0.0
-0.6179111,-0.17757884,0.056180146,0.0,0.0
0.5691182,0.05098373,-0.13889825,0.0,0.0
-0.35783124,0.020747349,-0.11917113,0.0,0.0
-0.34228745,0.001818952,0.03929421,0.0,0.0
0.5299107,-0.16686767,0.056156352,0.0,0.0
-0.11084725,-0.045139078,-0.04153139,0.0,0.0
0.72947437,-0.1530774,-0.08354607,0.0,0.0
-0.07436709,0.06460959,0.033078197,0.0,0.0
0.5121518,-0.15274745,0.059675347,0.0,0.0
0.6778456,0.012172385,-0.14188391,0.0,0.0
-0.5233001,0.253267,-0.07957254,0.0,0.0
-0.47353905,0.057511292,-0.0371576,0.0,0.0
0.7602785,-0.007239401,-0.13560219,0.0,0.0
-0.07583674,-0.16872191,0.2797367,0.0,0.0
-0.31032798,0.027173871,-0.0872264,0.0,0.0
0.10160403,0.19934492,-0.06811884,0.0,0.0
-0.3894957,-0.028054485,0.085256755,0.0,0.0
0.83146274,-0.121979855,-0.10491349,0.0,0.0
-0.069924735,0.114212304,-0.060842484,0.0,0.0
-0.85098696,-0.04058945,-0.040591788,0.0,0.0
0.32355013,-0.16267863,-0.08231502,0.0,0.0
0.5329296,-0.18868013,0.27435595,0.0,0.0
0.40370792,0.06335983,-0.13580304,0.0,0.0
0.39352083,0.08715284,-0.13922772,0.0,0.0
-0.4610742,-0.03696708,-0.0041238414,0.0,0.0
0.7473355,-0.11161501,0.10139838,0.0,0.0
0.26940942,-0.11896482,-0.1472314,0.0,0.0
0.7129194,-0.13868614,0.11062806,0.0,0.0
-0.70009464,0.043034468,-0.13277876,0.0,0.0
0.6999183,0.023389302,0.02420633,0.0,0.0
-0.51086885,-0.3116878,-0.09690879,0.0,0.0
-0.76650745,-0.10960388,-0.0010554355,0.0,0.0
0.5245043,-0.0011012151,-0.004440174,0.0,0.0
0.11143894,-0.15031345,0.030394364,0.0,0.0
0.47682345,-0.033217307,0.019345718,0.0,0.0
0.32145923,-0.10218407,0.031587157,0.0,0.0
0.2422443,-0.062305048,-0.10113967,0.0,0.0
0.7635414,-0.13922583,0.090938374,0.0,0.0
-0.19496612,0.07708509,-0.07730338,0.0,0.0
0.6064189,-0.1861532,-0.083563186,0.0,0.0
-0.15628855,0.13328764,-0.15563013,0.0,0.0
0.63111115,0.12485029,-0.106122516,0.0,0.0
0.7021045,0.14210464,-0.21009839,0.0,0.0
-0.23377271,-0.0014818767,0.06186895,0.0,0.0
-0.5570247,0.083666205,-0.10988135,0.0,0.0
0.7032393,-0.12637489,0.0073856516,0.0,0.0
0.38070172,-0.19873928,-0.1629727,0.0,0.0
-0.71557593,0.06811396,-0.01083127,0.0,0.0
-0.26672462,-0.053493988,-0.040743113,0.0,0.0
0.11655009,0.00533385,-0.01841796,0.0,0.0
0.47553998,-0.04002182,0.042587668,0.0,0.0
0.52919674,-0.09506632,0.20200945,0.0,0.0
-0.26333585,0.14882152,0.059249394,0.0,0.0
0.40787888,-0.15461494,0.2561025,0.0,0.0
0.42397007,-0.061785296,-0.18440017,0.0,0.0
0.17103782,-0.17872067,0.06442851,0.0,0.0
-0.69866836,0.032141313,-0.10353911,0.0,0.0
0.07909754,-0.24811819,0.30817533,0.0,0.0
0.004931306,-0.04069685,-0.039604954,0.0,0.0
0.63757193,0.24751809,0.040381625,0.0,0.0
1.0101658,-0.018717365,-0.1881476,0.0,0.0
0.5117271,-0.07873116,0.15739782,0.0,0.0
0.075983904,-0.107626036,-0.13943633,0.0,0.0
0.73534024,0.0002771084,-0.10806358,0.0,0.0
-0.95375746,0.039041378,-0.056920283,0.0,0.0
-0.049566116,0.03233575,-0.099849544,0.0,0.0
0.17917201,0.17537633,-0.08815312,0.0,0.0
-0.23403513,-0.065983444,-0.012019813,0.0,0.0
-0.10621034,-0.0724044,-0.10408063,0.0,0.0
-0.19698928,0.23606046,-0.1379524,0.0,0.0
0.14807358,-0.002048212,-0.15398337,0.0,0.0
0.66517055,-0.04741828,-0.09710013,0.0,0.0
-0.71801776,0.10088847,-0.08622223,0.0,0.0
-0.11396336,-0.09950501,-0.029353965,0.0,0.0
0.331191,-0.16991633,-0.008850456,0.0,0.0
0.52893823,-0.12875827,0.1540712,0.0,0.0
-0.35770115,0.039190605,-0.001895564,0.0,0.0
-0.072295465,-0.12049055,-0.0032788897,0.0,0.0
0.61746186,-0.08647516,-0.115600094,0.0,0.0
-0.07135523,0.053783406,-0.11135908,0.0,0.0
-0.03238365,-0.056856774,-0.074591346,0.0,0.0
0.6303487,0.0805942,-0.08486108,0.0,0.0
-0.112102315,-0.13941601,-0.03911454,0.0,0.0
0.16557176,-0.016873568,0.061913993,0.0,0.0
0.696367,-0.054760225,-0.003965301,0.0,0.0
0.24945584,-0.19891526,-0.008940664,0.0,0.0
0.12523541,0.16062929,-0.078385465,0.0,0.0
0.0238474,-0.030161534,-0.035895467,0.0,0.0
-0.2220634,0.1087808,-0.14776704,0.0,0.0
0.101504676,0.098011926,-0.06459676,0.0,0.0
-0.12768684,0.027113002,0.07943875,0.0,0.0
-0.42733693,-0.054250553,-0.0035294204,0.0,0.0
0.014512675,-0.10339808,0.17099047,0.0,0.0
0.3207056,-0.031050606,0.108681604,0.0,0.0
-0.13874245,-0.08910079,0.054339197,0.0,0.0
0.07143297,0.10459836,-0.07028042,0.0,0.0
0.606092,-0.04295192,-0.033517387,0.0,0.0
0.54567724,-0.22940852,0.20493908,0.0,0.0
-0.56973493,0.1383435,-0.122960426,0.0,0.0
0.56596595,-0.13393845,0.10194776,0.0,0.0
-0.2048202,0.05060554,0.00088277226,0.0,0.0
0.015019067,-0.16346379,0.1348465,0.0,0.0
-0.23835772,0.05317597,-0.0809454,0.0,0.0
0.43142354,-0.15097414,0.17319214,0.0,0.0
0.060186725,0.06474285,-0.073168226,0.0,0.0
-0.38399935,-0.05388478,0.038319737,0.0,0.0
0.6326488,-0.18781431,-0.07806694,0.0,0.0
0.05801861,0.23656152,-0.10711488,0.0,0.0
-0.31476825,0.09500715,-0.07748292,0.0,0.0
0.32848445,0.32031107,-0.073221035,0.0,0.0
0.027916702,-0.16317286,0.129059,0.0,0.0
-0.09112567,-0.20486856,-0.08879074,0.0,0.0
-0.019903164,-0.050085876,0.18262398,0.0,0.0
-0.10870063,-0.059799142,0.012640994,0.0,0.0
0.2056496,0.07625105,-0.058009177,0.0,0.0
0.33658534,-0.12755385,-0.15377027,0.0,0.0
0.6286068,-0.06950381,-0.16157293,0.0,0.0
0.092585504,0.12331169,-0.10032108,0.0,0.0
-0.17887309,0.14715746,-0.058288496,0.0,0.0
-0.18125506,-0.0055162013,0.048603695,0.0,0.0
-0.1850628,-0.17185839,0.25424618,0.0,0.0
-0.5792175,-0.2682467,-0.05922947,0.0,0.0
0.6567103,-0.14485112,0.108667344,0.0,0.0
-0.27730003,0.06484075,-0.16928744,0.0,0.0
0.25850177,-0.18796264,0.033595107,0.0,0.0
0.10297199,-0.07426486,-0.12547074,0.0,0.0
0.3143539,-0.24070214,0.19664486,0.0,0.0
0.60833263,-0.057374585,-0.038543034,0.0,0.0
-0.22684793,-0.0660177,-0.1530065,0.0,0.0
-0.19559036,-0.1382126,0.17044872,0.0,0.0
-0.4162924,-0.103499174,-0.14209157,0.0,0.0
-0.28928548,-0.10214839,0.1245622,0.0,0.0
0.089718096,-0.20572183,-0.08538683,0.0,0.0
0.40394834,0.024510833,-0.10169906,0.0,0.0
-0.25532633,-0.044016995,-0.113561,0.0,0.0
-0.24628302,-0.19105574,0.16615573,0.0,0.0
0.36537027,-0.18153304,0.0030486826,0.0,0.0
0.63361114,0.05915042,-0.16655777,0.0,0.0
0.63620394,0.29389295,-0.15509401,0.0,0.0
-0.40006274,-0.107867405,-0.1606392,0.0,0.0
-0.009668741,-0.08109469,0.018099824,0.0,0.0
0.17498612,-0.1983123,0.13459821,0.0,0.0
0.5801967,0.33952522,-0.060675085,0.0,0.0
-0.7712778,0.012046221,-0.037348907,0.0,0.0
0.29192525,0.38752735,0.030488942,0.0,0.0
0.65128326,-0.014265688,0.18103641,0.0,0.0
-0.1951282,-0.12348208,0.14956225,0.0,0.0
0.87378794,-0.21246251,-0.08973712,0.0,0.0
0.8917324,0.026634052,-0.072415866,0.0,0.0
-0.25404137,0.05657732,-0.1420548,0.0,0.0
0.32140857,-0.13125712,0.10662595,0.0,0.0
0.3605774,-0.07963483,0.13501114,0.0,0.0
-0.6677984,-0.25841013,-0.031824645,0.0,0.0
0.38930458,-0.081916675,0.1341602,0.0,0.0
0.26933724,0.21831375,0.02896364,0.0,0.0
-0.045219265,-0.1758267,0.19848187,0.0,0.0
-0.23374926,-0.1080928,0.13088787,0.0,0.0
-0.69257265,0.018987479,-0.084939346,0.0,0.0
0.1863891,0.1567142,-0.056538813,0.0,0.0
0.7445971,-0.09489332,-0.19634715,0.0,0.0
0.7051436,-0.034048513,0.022445535,0.0,0.0
-0.6753136,-0.05453078,0.003970581,0.0,0.0
-0.6958089,-0.014341795,-0.11090688,0.0,0.0
0.97238386,-0.08958555,-0.10020898,0.0,0.0
-0.09049156,0.33903554,-0.15418059,0.0,0.0
-0.57681346,-0.20648618,-0.07587487,0.0,0.0
0.49384052,0.19942449,-0.10326854,0.0,0.0
-0.5048524,0.021828271,-0.16784787,0.0,0.0
-0.6183531,0.19471438,-0.12661603,0.0,0.0
-0.0093778195,0.09947214,-0.10240809,0.0,0.0
0.2699858,-0.2707117,0.25578344,0.0,0.0
0.50450164,0.28073132,-0.08535377,0.0,0.0
-0.12637344,-0.035507426,0.07594696,0.0,0.0
0.012378365,-0.1024721,0.074483566,0.0,0.0
0.030595126,-0.050041173,-0.11154061,0.0,0.0
0.17954089,0.041412424,-0.12677014,0.0,0.0
-0.3521719,-0.22926344,0.080450065,0.0,0.0
-0.30878988,-0.04569423,0.008742759,0.0,0.0
-0.65565187,-0.16091321,0.003961794,0.0,0.0
-0.25301245,0.011460069,-0.033205163,0.0,0.0
0.019833215,-0.04408092,0.13665278,0.0,0.0
0.20866981,-0.0008053356,-0.018024597,0.0,0.0
-0.5567325,0.025950648,0.02831529,0.0,0.0
0.31833252,0.25974193,-0.045378935,0.0,0.0
0.796947,0.05272592,0.072867796,0.0,0.0
-0.087016426,0.0726495,-0.10452537,0.0,0.0
0.020015161,-0.05062405,-0.013265257,0.0,0.0
-0.8807251,0.17119403,-0.08098337,0.0,0.0
0.39677596,0.0719065,-0.19598816,0.0,0.0
0.36436898,-0.14908546,0.11542869,0.0,0.0
-0.112430364,-0.050138034,-0.035644967,0.0,0.0
-0.0037883427,0.06101427,-0.12118236,0.0,0.0
-0.54812616,-0.25138727,-0.075292096,0.0,0.0
0.5616813,0.21561311,-0.10611978,0.0,0.0
0.48387408,-0.101284906,0.034220576,0.0,0.0
0.61367434,-0.05332787,-0.095154166,0.0,0.0
-0.02018614,-0.08260416,0.07900559,0.0,0.0
0.15936276,0.22246352,-0.07513389,0.0,0.0
0.27481544,-0.09045956,0.16075444,0.0,0.0
0.47973382,-0.13551554,0.031888764,0.0,0.0
0.04195396,-0.1287792,0.12331666,0.0,0.0
0.08499499,0.06987509,-0.1409969,0.0,0.0
-0.15279709,-0.081966534,-0.13092332,0.0,0.0
0.73932934,-0.036366757,0.17933753,0.0,0.0
-0.32100645,-0.17340417,0.2002976,0.0,0.0
0.28882265,-0.05943761,0.07755853,0.0,0.0
0.42387998,-0.09039252,0.2632784,0.0,0.0
-0.19435695,-0.08878295,0.053507898,0.0,0.0
-0.7875013,-0.057536934,-0.09525777,0.0,0.0
-0.4112625,-0.00244746,0.05494555,0.0,0.0
0.2609713,-0.040864907,0.01290855,0.0,0.0
-0.0004915432,0.13787773,-0.1256706,0.0,0.0
-0.20779115,-0.05767019,-0.011853645,0.0,0.0
0.5585415,-0.11297515,0.23038161,0.0,0.0
-0.05787724,-0.23971276,0.18477891,0.0,0.0
-0.63867265,0.012626702,0.013539888,0.0,0.0
0.27076492,-0.15255614,-0.053869326,0.0,0.0
-0.6676845,0.088121295,0.044355802,0.0,0.0
0.60197216,-0.21896549,0.27864718,0.0,0.0
-0.31602457,-0.15742542,0.1088817,0.0,0.0
-0.16484337,0.0055324584,-0.006043997,0.0,0.0
-0.4157092,0.09968504,-0.047743004,0.0,0.0
-0.057708986,0.021827057,0.0062509906,0.0,0.0
0.647516,-0.11510282,-0.12038707,0.0,0.0
-0.68952864,-0.12757777,0.04344959,0.0,0.0
-0.28754485,-0.20284829,0.15575865,0.0,0.0
0.102407485,0.10893044,-0.13629135,0.0,0.0
-0.30474892,0.009053796,-0.06367479,0.0,0.0
-0.36053914,0.19626139,0.004569639,0.0,0.0
-0.11304338,0.24082643,-0.031329196,0.0,0.0
-0.39096513,-0.03306328,0.024601586,0.0,0.0
0.13543792,0.09153803,-0.1588366,0.0,0.0
0.010635797,-0.045414735,0.12526964,0.0,0.0
0.23233785,-0.1660695,0.062601686,0.0,0.0
0.48447713,-0.18623695,0.06158885,0.0,0.0
0.3919905,0.008061522,-0.03530591,0.0,0.0
0.09267978,0.0027799371,-0.11103224,0.0,0.0
0.42993474,-0.023699125,0.09332368,0.0,0.0
0.6722168,-0.19986449,0.00865708,0.0,0.0
-0.55296946,0.07254502,-0.10153075,0.0,0.0
-0.10619203,0.0554559,-0.03824423,0.0,0.0
-0.560256,0.11664054,-0.06708845,0.0,0.0
0.006224304,-0.2576356,0.25804603,0.0,0.0
-0.07570529,0.118681006,-0.04500027,0.0,0.0
0.40940493,0.40882698,-0.084702455,0.0,0.0
0.08642845,-0.13655972,0.19272761,0.0,0.0
0.8359821,-0.05069304,0.37075913,0.0,0.0
-0.2504614,-0.19541219,0.31943375,0.0,0.0
-0.08356044,-0.06176117,0.009129413,0.0,0.0
0.24276727,0.09051471,-0.06474831,0.0,0.0
0.18862861,0.1793318,-0.08802795,0.0,0.0
0.2054738,0.19043325,-0.13133891,0.0,0.0
0.107468136,-0.28391352,0.18016897,0.0,0.0
0.53404754,-0.11975337,0.10669712,0.0,0.0
-0.21148807,0.1576049,-0.08916061,0.0,0.0
0.6367168,-0.08563407,0.09607215,0.0,0.0
-0.63349354,-0.22708775,-0.004492408,0.0,0.0
0.53220934,-0.19393347,0.18612817,0.0,0.0
-0.1020075,-0.27899545,0.044274576,0.0,0.0
0.65558845,-0.031721946,-0.14299266,0.0,0.0
0.33295894,0.0016008691,-0.053847354,0.0,0.0
0.25913724,-0.060780026,-0.22395502,0.0,0.0
-0.8612544,0.09273767,-0.09581885,0.0,0.0
0.06310631,0.04313262,-0.07103823,0.0,0.0
0.39562368,-0.02962606,0.04161595,0.0,0.0
0.26287177,-0.08876303,0.15978836,0.0,0.0
-0.2645065,0.37424272,0.009808399,0.0,0.0
-0.97848725,-0.06311255,-0.10200723,0.0,0.0
-0.7056372,-0.18689077,0.15427247,0.0,0.0
0.15262024,-0.074791975,-0.038106333,0.0,0.0
0.28725085,-0.10634814,0.080030955,0.0,0.0
0.7520156,-0.14350171,0.1157097,0.0,0.0
-0.27025482,-0.20327082,0.33047792,0.0,0.0
-0.3293659,-0.12921779,-0.09849337,0.0,0.0
0.43800956,-0.044365287,0.15075502,0.0,0.0
-0.30251217,-0.15761526,0.16514494,0.0,0.0
0.52808577,-0.18705653,0.24791332,0.0,0.0
-0.17058483,-0.026889931,-0.02281837,0.0,0.0
0.22704951,-0.079825304,-0.18089016,0.0,0.0
0.22837354,-0.16866083,-0.034134302,0.0,0.0
-0.14754364,0.031270325,0.037848663,0.0,0.0
-0.11231897,-0.19767234,0.25758696,0.0,0.0
0.49286577,0.09178578,0.05166779,0.0,0.0
0.3792979,-0.14983487,0.2513403,0.0,0.0
-0.020410117,-0.12426682,0.08338827,0.0,0.0
-0.50881845,0.109809436,-0.025844142,0.0,0.0
-0.48627684,-0.024522645,-0.15290181,0.0,0.0
0.26197496,0.07975038,-0.042464375,0.0,0.0
0.16035607,-0.17676006,0.0010456906,0.0,0.0
-0.4108855,0.07997877,-0.10737448,0.0,0.0
-0.17535369,-0.075956754,0.24931172,0.0,0.0
-0.80828655,-0.048191495,-0.10053293,0.0,0.0
-0.48225787,-0.13003992,0.10607641,0.0,0.0
0.44831207,-0.06926215,-0.08789533,0.0,0.0
-0.35611475,0.023832072,-0.07712367,0.0,0.0
0.36889422,-0.07769003,0.13836585,0.0,0.0
-0.114492364,-0.031509064,0.018277397,0.0,0.0
0.54584754,0.050894424,-0.034734435,0.0,0.0
0.5108512,0.30095583,-0.09340917,0.0,0.0
-0.62719977,-0.093950815,0.11209464,0.0,0.0
0.14770606,-0.013879604,0.06771493,0.0,0.0
-0.10544039,0.036404096,-0.069870755,0.0,0.0
-0.3473636,-0.11555224,0.13011295,0.0,0.0
0.2844243,-0.022999553,-0.12030816,0.0,0.0
-0.024899473,-0.14692692,0.26769856,0.0,0.0
-0.2915688,-0.0744804,-0.14263293,0.0,0.0
-0.31329975,-0.05189289,0.018440371,0.0,0.0
-0.5276406,0.03068925,-0.106647566,0.0,0.0
-0.08742642,0.021016913,-0.06587141,0.0,0.0
-0.928018,0.008351169,-0.10018354,0.0,0.0
-0.21192095,-0.059000064,0.00521369,0.0,0.0
0.5241832,-0.1871386,0.04790133,0.0,0.0
0.84129107,-0.05941805,-0.076160066,0.0,0.0
-0.29911572,-0.074024305,-0.08598658,0.0,0.0
0.41169393,0.28009382,-0.09908382,0.0,0.0
-0.69209754,0.34846815,-0.08665698,0.0,0.0
0.4682701,-0.13942225,0.10789742,0.0,0.0
0.0742835,-0.18896858,-0.0045669028,0.0,0.0
-0.16798359,-0.16897684,0.17553036,0.0,0.0
0.28743196,-0.054041274,-0.018653553,0.0,0.0
-0.0099888705,-0.11287467,0.12628913,0.0,0.0
0.5611295,0.07406866,-0.055088304,0.0,0.0
-0.56828326,-0.11773822,-0.053598143,0.0,0.0
0.44465953,0.0069668116,-0.07222237,0.0,0.0
0.48194137,-0.17103219,-0.028594851,0.0,0.0
0.31692156,-0.05910113,0.021644196,0.0,0.0
-0.038866498,-0.01008144,-0.081974484,0.0,0.0
-0.304586,-0.0094615,0.036098324,0.0,0.0
0.18275835,-0.083428524,0.21664771,0.0,0.0
-0.8359772,-0.13742158,-0.09936003,0.0,0.0
-0.78613794,0.021114754,-0.1681469,0.0,0.0
-0.4218123,-0.21398942,-0.09418521,0.0,0.0
0.5429301,0.09431686,-0.13388485,0.0,0.0
0.8521185,-0.09718822,0.0304436,0.0,0.0
0.60718113,0.046070926,-0.11373961,0.0,0.0
-0.57418954,-0.33237958,-0.215355,0.0,0.0
0.3608538,0.10201656,-0.110638216,0.0,0.0
0.5969679,-0.05340289,-0.083163396,0.0,0.0
-0.6217406,-0.18495937,0.10006927,0.0,0.0
-0.39981014,-0.09651484,0.098163165,0.0,0.0
0.5321394,-0.19607419,-0.06624652,0.0,0.0
0.35986447,-0.17330825,0.1116785,0.0,0.0
0.5054843,-0.17339697,0.119888134,0.0,0.0
-0.5231099,-0.19688386,-0.064397596,0.0,0.0
-0.51085913,0.0644955,0.04987404,0.0,0.0
0.44849864,-0.0074322773,-0.094215855,0.0,0.0
0.19982107,-0.20198683,0.026887182,0.0,0.0
-0.89085203,0.08865474,-0.0812674,0.0,0.0
-0.37659413,-0.19077149,0.07323271,0.0,0.0
-0.6531383,-0.009275731,-0.124595895,0.0,0.0
0.52843434,-0.21924573,-0.026520288,0.0,0.0
0.6542655,-0.3008896,0.079165235,0.0,0.0
-0.40500957,-0.015292703,-0.12690836,0.0,0.0
-0.7732161,-0.08832542,-0.12509976,0.0,0.0
-0.05665947,-0.06379708,-0.16365103,0.0,0.0
-0.79117936,0.07120563,-0.1105887,0.0,0.0
0.4387151,-0.0036584823,-0.13133201,0.0,0.0
-0.06843209,0.0062095164,-0.04973747,0.0,0.0
-0.60409385,-0.17701383,-0.02240607,0.0,0.0
-1.0315408,-0.22497611,-0.040973607,0.0,0.0
-0.31203625,0.45605502,-0.16011488,0.0,0.0
0.034412306,-0.08725083,1.3083609e-05,0.0,0.0
-0.7869967,0.009382604,-0.106619194,0.0,0.0
-0.42053145,0.06221397,-0.13058887,0.0,0.0
0.6453464,-0.07130302,-0.13534015,0.0,0.0
-0.29153374,-0.28994465,0.046221346,0.0,0.0
0.30664065,-0.08324887,0.092802495,0.0,0.0
-0.40463895,-0.036092274,-0.029441394,0.0,0.0
-0.41983885,-0.21399501,0.16706838,0.0,0.0
-0.2356649,-0.07706652,0.047931854,0.0,0.0
0.098692715,0.018189037,0.018332219,0.0,0.0
0.6488315,0.15734604,0.003364957,0.0,0.0
0.48247012,0.11466306,-0.10434073,0.0,0.0
0.40603954,-0.1326602,-0.11805574,0.0,0.0
0.07031281,-0.14168143,-0.06371251,0.0,0.0
0.8323061,-0.16670921,-0.011422409,0.0,0.0
0.33563158,-0.088618085,0.1376258,0.0,0.0
-0.6746862,-0.09688152,0.019975476,0.0,0.0
-0.7800811,0.31310087,-0.10666434,0.0,0.0
-0.06980061,-0.15433298,0.13025919,0.0,0.0
-0.036765844,-0.05434915,0.008536951,0.0,0.0
-0.6126418,-0.17091928,0.1577101,0.0,0.0
-0.73542976,0.14527379,-0.079809114,0.0,0.0
0.25202766,-0.11273237,0.13128133,0.0,0.0
0.06823515,-0.040890697,-0.038439505,0.0,0.0
-0.8325725,-0.1587275,-0.046285577,0.0,0.0
-0.4043571,0.23946466,-0.106418066,0.0,0.0
-0.6441281,0.3719275,0.017843,0.0,0.0
0.33454922,0.17337392,-0.11808375,0.0,0.0
0.10249295,-0.14783524,0.100300014,0.0,0.0
-0.028271701,-0.09751678,-0.10924654,0.0,0.0
0.5729645,-0.13755785,-0.12118309,0.0,0.0
0.18931594,-0.19768426,0.25718117,0.0,0.0
-0.8458583,0.09062859,-0.09397999,0.0,0.0
0.6845175,-0.031825203,0.046956934,0.0,0.0
0.47439042,0.126065,-0.13351168,0.0,0.0
-0.15764572,-0.65614694,0.050961394,0.0,0.0
-0.4641473,-0.05954475,-0.12223303,0.0,0.0
0.12516254,-0.03018263,-0.06467734,0.0,0.0
0.7495456,-0.10101526,-0.10383097,0.0,0.0
0.3466525,0.051699232,-0.13850874,0.0,0.0
-0.64139783,-0.16072941,-0.020528361,0.0,0.0
-0.3531034,-0.12932147,0.15120189,0.0,0.0
0.04475747,-0.03876313,0.016368823,0.0,0.0
-0.093821764,-0.18338141,0.07734952,0.0,0.0
0.13196619,-0.094821475,0.040889837,0.0,0.0
-0.18948893,0.0122406185,-0.111357614,0.0,0.0
0.7189728,0.5322487,-0.054639973,0.0,0.0
0.28132984,-0.17394003,0.19390789,0.0,0.0
0.5451956,0.063124195,0.18439972,0.0,0.0
0.43227762,-0.0317427,-0.004538886,0.0,0.0
-0.6858009,-0.29218817,-0.042403482,0.0,0.0
-0.06737503,-0.09222804,0.13568372,0.0,0.0
-0.27338248,-0.08888086,0.009008506,0.0,0.0
0.49953628,-0.20643993,-0.046695232,0.0,0.0
0.43742487,-0.16288432,-0.041943286,0.0,0.0
-0.20769317,-0.17290458,0.26070616,0.0,0.0
0.6438745,-0.055459574,-0.10193987,0.0,0.0
-0.5860928,-0.021394216,-0.08034452,0.0,0.0
-0.4435101,0.03680343,-0.09614758,0.0,0.0
0.38107616,-0.12655982,0.16621502,0.0,0.0
0.30059886,0.22335754,0.11108691,0.0,0.0
0.03151364,0.20649959,-0.11957205,0.0,0.0
-0.79264957,-0.020782216,-0.10280988,0.0,0.0
-0.2731085,0.16513635,-0.029809091,0.0,0.0
0.12935668,-0.18215403,-0.03482922,0.0,0.0
0.55023694,-0.056674585,0.100630395,0.0,0.0
0.40013,-0.19288462,0.27677113,0.0,0.0
0.22675644,-0.3040797,0.24620265,0.0,0.0
0.70595604,0.34854758,-0.086520374,0.0,0.0
-0.6977723,-0.18384677,0.08677766,0.0,0.0
-0.14769806,0.26342833,-0.090822,0.0,0.0
-0.8421565,-0.038195662,-0.12167561,0.0,0.0
0.6421661,-0.07736963,-0.10604423,0.0,0.0
0.057140116,-0.017181488,-0.063197255,0.0,0.0
-0.30779362,-0.06677877,0.059095766,0.0,0.0
0.7237983,0.19742295,-0.015718028,0.0,0.0
-0.35949397,-0.1425163,0.23015007,0.0,0.0
-0.3842902,-0.22617736,-0.043579806,0.0,0.0
0.59634006,-0.12601638,-0.1288964,0.0,0.0
0.5051207,0.00045079697,-0.058372144,0.0,0.0
0.29949805,-0.24554858,-0.15123923,0.0,0.0
-0.22429007,-0.08475922,-0.09450482,0.0,0.0
0.5727202,-0.10176884,-0.07831756,0.0,0.0
0.454409,-0.09607039,0.059378956,0.0,0.0
-0.6327857,0.0051945643,-0.039052546,0.0,0.0
0.6107656,-0.14484668,0.048725136,0.0,0.0
0.5478538,0.0007043057,0.06337239,0.0,0.0
-0.0053016404,0.09938222,-0.14045124,0.0,0.0
0.47553524,-0.04728778,0.102961086,0.0,0.0
-0.7360257,0.06263575,-0.112647496,0.0,0.0
0.122650094,-0.0059174336,0.0063335616,0.0,0.0
-0.42883357,-0.2138211,0.24118194,0.0,0.0
0.123254105,-0.07115235,-0.0046211397,0.0,0.0
0.081110924,0.04661036,0.015284601,0.0,0.0
-0.26341248,0.007266649,-0.15293922,0.0,0.0
-0.8648936,0.26598084,-0.15876663,0.0,0.0
-0.4142105,-0.14146486,-0.042758822,0.0,0.0
0.023700863,0.12823586,-0.105359755,0.0,0.0
-0.28345963,-0.1048289,-0.17485355,0.0,0.0
0.52309954,-0.16958386,-0.066178516,0.0,0.0
0.3021374,0.16863889,-0.115234755,0.0,0.0
-0.37048173,0.12083868,-0.015318451,0.0,0.0
-0.3687503,-0.23968048,-0.040619362,0.0,0.0
0.6776804,-0.08181469,-0.1834935,0.0,0.0
-0.33548263,-0.18459034,0.1595454,0.0,0.0
-0.28509462,-0.15982439,0.11630419,0.0,0.0
0.06502496,-0.024307188,-0.006261224,0.0,0.0
-0.7778971,0.023432953,-0.124911115,0.0,0.0
0.141674,-0.038378175,0.102914676,0.0,0.0
-0.07433003,-0.05146936,-0.105547704,0.0,0.0
-0.62890977,0.16748351,-0.07816647,0.0,0.0
-0.33003038,0.0035592085,0.0031116544,0.0,0.0
-0.22190505,0.039466947,-0.12325797,0.0,0.0
0.26056373,0.25580075,-0.1084353,0.0,0.0
-0.36084148,-0.057237726,-0.0056350864,0.0,0.0
-1.0263978,0.16174415,-0.018777685,0.0,0.0
-0.51181686,-0.058913697,0.02567776,0.0,0.0
-0.6909174,-0.04341568,-0.084545635,0.0,0.0
-0.3795241,0.09231792,-0.025402404,0.0,0.0
0.27615738,-0.0878955,-0.051352207,0.0,0.0
-0.15392235,-0.1755985,-0.037223056,0.0,0.0
0.23580319,0.06966615,0.046412297,0.0,0.0
-0.61397326,-0.19191833,0.051607534,0.0,0.0
-0.21556126,0.28089786,-0.084017515,0.0,0.0
0.06437413,0.10346426,-0.07044557,0.0,0.0
-0.9229742,-0.08432798,0.06951866,0.0,0.0
0.28298733,0.027621312,-0.0126911905,0.0,0.0
0.755221,-0.12579142,-0.019504676,0.0,0.0
-0.43123564,-0.1158566,0.149529,0.0,0.0
0.21487172,0.017514559,0.028638223,0.0,0.0
-0.8869608,0.061009694,-0.11325212,0.0,0.0
0.21801792,-0.08412947,0.07625161,0.0,0.0
0.5765161,0.03365013,0.0014919565,0.0,0.0
-0.5583945,-0.18421218,0.010703723,0.0,0.0
-0.31996465,0.10903701,0.10290024,0.0,0.0
0.010255094,-0.0010724012,-0.07912004,0.0,0.0
-0.62329835,0.19218779,0.011150518,0.0,0.0
-0.42910042,0.13536999,-0.10089759,0.0,0.0
0.37165365,-0.0058846395,-0.14735886,0.0,0.0
-0.16070499,-0.11222528,0.05084538,0.0,0.0
-0.48075944,0.20803663,-0.059096485,0.0,0.0
-0.06088465,0.059630696,-0.113359556,0.0,0.0
0.5036068,0.028412675,-0.18514149,0.0,0.0
0.55665123,-0.08903,-0.123387866,0.0,0.0
0.23543893,-0.09838955,0.0516221,0.0,0.0
0.019377178,-0.11085352,-0.15315987,0.0,0.0
0.23511955,-0.038705673,0.016113799,0.0,0.0
-0.65906,0.18094663,-0.05227599,0.0,0.0
-0.06193184,-0.23753294,-0.009141724,0.0,0.0
0.6998283,0.5282046,-0.018164875,0.0,0.0
-0.17597637,-0.0038126996,-0.11361443,0.0,0.0
0.3795284,-0.16333102,0.008489,0.0,0.0
0.6111917,0.2964183,0.012876743,0.0,0.0
0.13726524,0.10078018,-0.11344174,0.0,0.0
-0.3594465,0.32255203,-0.07951153,0.0,0.0
-0.67557114,-0.102283,0.08739904,0.0,0.0
-0.06824135,-0.17376862,-0.060749423,0.0,0.0
-0.5266944,0.12720282,-0.09911084,0.0,0.0
-0.041028056,0.040051952,0.2559019,0.0,0.0
0.32674697,0.03837986,0.010769218,0.0,0.0
-0.5917552,0.02172612,0.0051580844,0.0,0.0
-0.4249565,-0.059652492,0.030895488,0.0,0.0
0.54446703,0.1085558,-0.13664737,0.0,0.0
-0.38939092,0.0373139,-0.102255575,0.0,0.0
-0.14595857,0.18302906,-0.089146756,0.0,0.0
-0.17411284,-0.070795745,0.06259505,0.0,0.0
-0.32080856,0.03327334,-0.024655659,0.0,0.0
0.32636932,0.2688737,-0.055012055,0.0,0.0
-0.73387474,0.07061799,-0.04130835,0.0,0.0
-0.59069103,-0.08340448,0.28310233,0.0,0.0
0.6925028,0.10868263,-0.09611562,0.0,0.0
-0.5815247,0.08832206,-0.08812258,0.0,0.0
0.5950546,0.03257319,-0.09426872,0.0,0.0
0.05786479,-0.1826115,0.18509191,0.0,0.0
0.36812374,-0.23412071,-0.033147052,0.0,0.0
0.39165914,-0.120542705,-0.109666154,0.0,0.0
-0.3017908,-0.21134388,0.24640487,0.0,0.0
0.61858267,-0.092449054,0.028736636,0.0,0.0
0.30224878,0.037309363,-0.029204492,0.0,0.0
0.8358516,-0.017838242,-0.015698543,0.0,0.0
-0.0032299126,0.00865442,-0.04037057,0.0,0.0
-0.60711086,-0.07017077,-0.13896142,0.0,0.0
0.23420325,0.16908412,-0.1111063,0.0,0.0
0.07388505,0.2123314,-0.048218172,0.0,0.0
0.86808866,-0.11530906,-0.02248209,0.0,0.0
0.47492126,0.047126684,-0.084266104,0.0,0.0
-0.09120047,-0.101498134,-0.11807553,0.0,0.0
0.09270521,0.051457535,-0.10944964,0.0,0.0
0.27944368,0.09395502,-0.15883598,0.0,0.0
-0.108236045,0.025383102,-0.13603027,0.0,0.0
0.35956463,0.094539836,-0.14834327,0.0,0.0
0.66653025,0.014356424,-0.022279233,0.0,0.0
0.6477655,-0.14158668,0.18526888,0.0,0.0
0.08689092,0.13683368,-0.088078246,0.0,0.0
-0.7837032,0.16344401,-0.083485015,0.0,0.0
0.48934773,0.015568625,-0.15906338,0.0,0.0
-0.66102284,-0.2425426,-0.09159291,0.0,0.0
-0.8504134,-0.06637595,-0.17496943,0.0,0.0
0.4177683,-0.03901174,-0.15035081,0.0,0.0
-0.40151626,0.09979467,-0.1322009,0.0,0.0
-0.35064307,-0.07716501,0.11479979,0.0,0.0
-0.17245807,-0.06271908,-0.06323331,0.0,0.0
-0.30308425,-0.08660063,0.40427706,0.0,0.0
-0.4802157,-0.1886358,0.058355473,0.0,0.0
0.25873536,0.03294953,-0.22424088,0.0,0.0
0.43596253,-0.20509695,0.011172244,0.0,0.0
-0.04021269,0.13223763,-0.074017055,0.0,0.0
-0.7858668,-0.0944505,0.029552257,0.0,0.0
0.8419497,0.10379676,-0.16879404,0.0,0.0
-0.19233403,-0.083881155,0.16075397,0.0,0.0
0.55223495,-0.022343613,-0.16051073,0.0,0.0
0.7819539,-0.1310094,0.09758608,0.0,0.0
0.19890653,0.1613962,-0.051332064,0.0,0.0
-0.5239917,0.11514588,-0.124281354,0.0,0.0
-0.11722063,0.19043276,-0.08926212,0.0,0.0
0.55022776,-0.14425401,-0.01955199,0.0,0.0
0.18593037,-0.115064114,0.10175326,0.0,0.0
0.05123817,-0.20724301,0.18027693,0.0,0.0
0.7369052,-0.15593854,0.024587693,0.0,0.0
-0.25828293,0.02110748,0.058628023,0.0,0.0
0.7579701,0.085496925,-0.11356085,0.0,0.0
-0.101182446,-0.21618775,0.13258392,0.0,0.0
0.3955306,-0.15810247,-0.040899895,0.0,0.0
0.41813415,-0.04374618,-0.14537708,0.0,0.0
-0.12647858,0.021912258,-0.061586004,0.0,0.0
-0.9250083,0.13241349,-0.10344398,0.0,0.0
0.29914716,-0.40002918,0.24120566,0.0,0.0
0.20821175,-0.16606438,0.13896273,0.0,0.0
-0.516549,0.08701913,-0.096706815,0.0,0.0
0.19794336,0.012808398,-0.14691731,0.0,0.0
0.24514225,0.004585574,-0.06735109,0.0,0.0
-0.61815345,0.04380879,-0.11150655,0.0,0.0
0.52533436,0.14962813,-0.057892814,0.0,0.0
0.10494835,0.063669905,0.012339284,0.0,0.0
-0.4151929,-0.23242775,0.13028274,0.0,0.0
0.34188876,-0.110116154,0.05905348,0.0,0.0
-0.89001536,-0.079432555,-0.023548521,0.0,0.0
0.66809744,-0.23118825,0.13365315,0.0,0.0
-0.6210721,-0.15570596,-0.11938748,0.0,0.0
-0.14261997,-0.21790618,0.02283856,0.0,0.0
-0.62973833,-0.06829616,0.015726168,0.0,0.0
0.15394479,-0.043394376,0.03388687,0.0,0.0
-0.28850192,-0.24294241,0.26815182,0.0,0.0
0.49675545,0.32720995,-0.10533929,0.0,0.0
-0.7679023,-0.10453716,-0.016147528,0.0,0.0
-0.10045195,0.13070591,-0.09534038,0.0,0.0
-0.17265622,0.37114555,-0.11287073,0.0,0.0
-0.69059736,-0.018699156,-0.09567607,0.0,0.0
0.36649463,0.0018315002,0.024133895,0.0,0.0
-0.7051938,0.13637781,0.18765126,0.0,0.0
0.48834658,0.54128563,-0.046049766,0.0,0.0
-0.53762543,0.07237276,0.043662686,0.0,0.0
0.015244098,-0.018638175,-0.037049625,0.0,0.0
0.2642729,-0.029321661,-0.10496064,0.0,0.0
0.35561982,-0.032286644,-0.14852451,0.0,0.0
0.3144461,0.15584736,0.010664441,0.0,0.0
-0.58064854,-0.25027752,0.13759229,0.0,0.0
-0.0311778,0.06750222,-0.103944644,0.0,0.0
0.6892056,-0.05937975,0.11114758,0.0,0.0
-0.2530391,-0.019525649,0.014125731,0.0,0.0
-0.7767925,-0.06911904,-0.12370494,0.0,0.0
0.57757443,-0.18196322,-0.11877857,0.0,0.0
0.6677169,-0.09320926,-0.15830155,0.0,0.0
-0.5858178,-0.03014406,-0.0986766,0.0,0.0
-0.5835081,-0.26355544,0.031996265,0.0,0.0
0.2326737,0.36816388,-0.054989174,0.0,0.0
-0.21645509,0.2616983,-0.09915316,0.0,0.0
-0.44865373,-0.23577556,-0.10764836,0.0,0.0
0.20608239,-0.12131459,-0.07340557,0.0,0.0
0.35223287,0.33784288,-0.081116006,0.0,0.0
-0.85945934,0.009150578,-0.094900884,0.0,0.0
0.09443784,-0.17195155,0.108555794,0.0,0.0
-0.65933293,-0.022673957,0.02014576,0.0,0.0
-0.502772,-0.12753691,0.14269269,0.0,0.0
0.972959,-0.18342192,-0.047340646,0.0,0.0
-0.04034224,-0.02348326,-0.02142006,0.0,0.0
0.52801406,-0.17967281,0.25506744,0.0,0.0
0.31274053,-0.09719009,0.10384083,0.0,0.0
0.18914694,-0.07732738,0.24440607,0.0,0.0
-0.37782177,-0.11242818,-0.011967493,0.0,0.0
0.029686315,0.28773183,-0.10065379,0.0,0.0
-0.24774802,-0.061858002,-0.12694132,0.0,0.0
-0.72844195,-0.020062147,-0.0700915,0.0,0.0
0.78708434,-0.0053973026,-0.119302474,0.0,0.0
0.20989816,-0.07383256,-0.13840201,0.0,0.0
-0.39504182,-0.14878826,0.15546653,0.0,0.0
-0.23971635,-0.14764236,0.17557244,0.0,0.0
-0.022357965,-0.0016060509,-0.02661485,0.0,0.0
-0.00792047,0.1389379,-0.076735556,0.0,0.0
0.41354948,0.3910682,0.04589968,0.0,0.0
0.8052944,0.0010414422,-0.09040411,0.0,0.0
-0.30785716,-0.17230958,0.015537035,0.0,0.0
0.39810556,0.16947857,-0.10820198,0.0,0.0
0.021065805,-0.050918106,0.009684066,0.0,0.0
-0.28272378,-0.1721333,0.14421262,0.0,0.0
0.5123667,-0.12943508,0.2540909,0.0,0.0
0.11559202,-0.03650728,0.14444813,0.0,0.0
-0.17288046,0.13031104,-0.08036175,0.0,0.0
